ncols         288
nrows         74
xllcorner     113.274861
yllcorner     32.2168055
cellsize      0.008333333333
NODATA_value  -9999
-9999 -9999 -9999 -9999 -9999 -9999 -9999 -9999 -9999 -9999 -9999 -9999 209 198 180 158 214 326 279 250 233 196 157 210 215 210 244 -9999 -9999 -9999 -9999 -9999 -9999 -9999 -9999 -9999 -9999 -9999 -9999 -9999 -9999 -9999 -9999 259 289 319 428 396 369 332 371 305 252 190 187 216 238 257 325 206 215 197 200 226 192 219 268 213 255 285 239 343 316 247 207 252 348 228 163 217 190 174 123 153 315 135 96 96 94 93 87 79 81 74 72 69 88 76 77 67 71 74 75 68 71 63 57 46 59 58 44 46 46 57 46 37 54 48 54 58 56 53 54 48 48 57 64 63 59 60 61 59 58 40 55 53 55 49 45 46 46 45 42 38 40 36 36 31 50 34 38 34 33 38 33 33 39 28 53 45 46 33 36 32 33 36 35 26 25 17 29 35 35 36 36 25 31 32 30 31 40 30 27 29 34 33 16 34 42 30 34 33 37 42 38 38 35 36 33 33 36 34 35 40 36 28 33 47 47 41 43 -9999 -9999 -9999 -9999 42 35 41 37 -9999 -9999 -9999 -9999 -9999 -9999 -9999 -9999 -9999 -9999 -9999 -9999 -9999 -9999 -9999 -9999 -9999 -9999 -9999 -9999 -9999 -9999 -9999 -9999 -9999 -9999 -9999 -9999 -9999 -9999 -9999 -9999 -9999 -9999 -9999 -9999 -9999 -9999 -9999 -9999 -9999 -9999 -9999 -9999 -9999 -9999 -9999 -9999 -9999 -9999 -9999 -9999 -9999 -9999 -9999 -9999 -9999 -9999 -9999 -9999 -9999 -9999 -9999 -9999 -9999 -9999 -9999 -9999 -9999
-9999 -9999 -9999 -9999 -9999 -9999 -9999 -9999 -9999 -9999 -9999 -9999 200 171 161 166 241 -9999 -9999 228 188 188 171 202 -9999 -9999 -9999 -9999 -9999 -9999 -9999 -9999 -9999 -9999 -9999 -9999 -9999 -9999 -9999 -9999 -9999 -9999 279 225 227 263 331 314 276 362 333 294 271 215 183 249 250 234 263 231 213 288 208 278 206 169 181 189 190 203 191 246 232 206 215 187 290 177 151 139 152 266 164 122 175 109 96 86 81 81 80 78 70 72 83 75 86 82 75 72 85 78 83 78 65 70 65 69 82 59 54 62 52 53 52 59 55 52 55 52 58 60 59 38 58 60 60 63 61 61 65 61 56 52 44 49 49 44 48 41 43 41 45 40 34 40 41 36 41 38 38 31 46 35 30 40 31 43 35 41 35 27 33 35 29 37 30 35 35 33 36 29 32 37 31 28 31 34 29 34 34 35 31 31 35 33 30 31 23 37 30 33 36 32 37 34 38 38 37 36 33 37 24 35 36 36 44 46 38 42 37 39 -9999 -9999 -9999 39 36 37 40 38 -9999 -9999 -9999 -9999 -9999 -9999 -9999 -9999 -9999 -9999 -9999 -9999 -9999 -9999 -9999 -9999 -9999 -9999 -9999 -9999 -9999 -9999 -9999 -9999 -9999 -9999 -9999 -9999 -9999 -9999 -9999 -9999 -9999 -9999 -9999 -9999 -9999 -9999 -9999 -9999 -9999 -9999 -9999 -9999 -9999 -9999 -9999 -9999 -9999 -9999 -9999 -9999 -9999 -9999 -9999 -9999 -9999 -9999 -9999 -9999 -9999 -9999 -9999 -9999 -9999 -9999 -9999 -9999
-9999 -9999 -9999 -9999 -9999 -9999 -9999 -9999 -9999 -9999 -9999 -9999 183 171 172 206 207 -9999 -9999 -9999 202 193 172 193 -9999 -9999 -9999 -9999 -9999 -9999 -9999 -9999 -9999 -9999 -9999 -9999 -9999 -9999 -9999 -9999 -9999 -9999 312 242 198 199 244 199 341 325 256 272 259 199 178 254 237 190 208 191 175 183 168 188 180 165 167 230 274 200 174 172 188 192 182 158 158 202 295 155 121 135 218 105 101 90 86 85 83 88 84 76 75 72 80 70 83 81 71 81 79 79 79 71 72 67 69 64 61 60 50 60 59 49 58 44 55 55 55 55 63 52 51 59 55 67 63 68 66 63 62 62 54 54 54 60 46 53 44 42 47 41 39 41 44 39 31 42 37 35 42 37 36 36 36 42 37 37 34 32 26 30 39 39 28 39 42 34 47 29 33 34 32 35 34 32 34 34 31 25 34 34 31 31 25 31 36 37 39 34 46 46 35 32 32 35 44 39 37 40 37 40 34 39 36 30 36 37 38 38 38 37 39 40 40 44 51 44 36 53 46 42 43 -9999 -9999 -9999 -9999 -9999 -9999 -9999 -9999 -9999 -9999 -9999 -9999 -9999 -9999 -9999 -9999 -9999 -9999 -9999 -9999 -9999 -9999 -9999 -9999 -9999 -9999 -9999 -9999 -9999 -9999 -9999 -9999 -9999 -9999 -9999 -9999 -9999 -9999 -9999 -9999 -9999 -9999 -9999 -9999 -9999 -9999 -9999 -9999 -9999 -9999 -9999 -9999 -9999 -9999 -9999 -9999 -9999 -9999 -9999 -9999 -9999 -9999 -9999 -9999 -9999
-9999 -9999 -9999 -9999 -9999 -9999 -9999 -9999 -9999 -9999 -9999 -9999 176 173 180 195 -9999 -9999 -9999 -9999 -9999 191 180 189 -9999 -9999 -9999 -9999 -9999 -9999 -9999 -9999 -9999 -9999 -9999 -9999 -9999 -9999 -9999 -9999 -9999 -9999 -9999 271 187 193 208 198 216 251 208 203 235 194 182 190 190 184 176 211 165 187 167 175 179 159 169 170 169 198 196 169 201 178 209 133 128 200 199 211 119 111 124 103 95 94 97 93 94 90 90 80 87 78 78 86 82 79 78 83 76 78 71 74 73 77 70 71 62 61 61 55 60 54 49 58 62 55 58 53 48 61 59 48 59 68 67 56 55 67 68 62 60 47 58 53 53 54 40 42 47 46 47 36 40 36 46 45 47 37 41 35 35 39 40 39 38 35 33 41 38 14 22 36 30 32 29 33 31 35 34 35 43 39 35 34 36 49 41 31 35 35 44 30 32 37 31 39 35 40 36 38 38 41 37 37 39 40 48 40 34 35 37 30 40 38 44 41 40 44 44 36 38 42 33 38 38 37 44 41 34 36 36 -9999 -9999 -9999 -9999 -9999 -9999 -9999 -9999 -9999 -9999 -9999 -9999 -9999 -9999 -9999 -9999 -9999 -9999 -9999 -9999 -9999 -9999 -9999 -9999 -9999 -9999 -9999 -9999 -9999 -9999 -9999 -9999 -9999 -9999 -9999 -9999 -9999 -9999 -9999 -9999 -9999 -9999 -9999 -9999 -9999 -9999 -9999 -9999 -9999 -9999 -9999 -9999 -9999 -9999 -9999 -9999 -9999 -9999 -9999 -9999 -9999 -9999 -9999 -9999 -9999
-9999 -9999 -9999 -9999 -9999 -9999 -9999 -9999 -9999 -9999 -9999 -9999 -9999 186 177 -9999 -9999 -9999 -9999 -9999 -9999 -9999 -9999 -9999 -9999 -9999 -9999 -9999 -9999 -9999 -9999 -9999 -9999 -9999 -9999 -9999 -9999 -9999 -9999 -9999 -9999 -9999 -9999 230 200 190 195 176 230 242 183 183 164 160 158 176 166 163 166 161 155 164 158 178 195 152 159 166 161 187 182 171 172 168 185 195 209 132 119 113 114 109 106 105 96 105 103 104 118 123 88 92 122 92 87 86 86 80 80 76 76 77 68 77 77 77 70 70 58 67 64 57 57 56 60 60 57 62 56 54 55 54 51 51 61 71 64 68 68 67 63 63 52 57 55 52 58 50 41 48 49 47 44 45 44 39 46 42 44 43 40 35 35 36 34 38 34 41 34 34 31 30 24 38 39 39 40 36 36 40 34 39 37 52 34 33 33 26 38 39 34 35 29 36 43 35 34 37 32 36 42 41 42 41 40 36 41 37 39 39 40 36 39 34 37 37 36 34 35 38 40 45 45 40 40 34 38 35 45 50 40 35 39 -9999 -9999 -9999 -9999 -9999 -9999 -9999 -9999 -9999 -9999 -9999 -9999 -9999 -9999 -9999 -9999 -9999 -9999 -9999 -9999 -9999 -9999 -9999 -9999 -9999 -9999 -9999 -9999 -9999 -9999 -9999 -9999 -9999 -9999 -9999 -9999 -9999 -9999 -9999 -9999 -9999 -9999 -9999 -9999 -9999 -9999 -9999 -9999 -9999 -9999 -9999 -9999 -9999 -9999 -9999 -9999 -9999 -9999 -9999 -9999 -9999 -9999 -9999 -9999 -9999
-9999 -9999 -9999 -9999 -9999 -9999 -9999 -9999 -9999 -9999 -9999 -9999 -9999 -9999 -9999 -9999 -9999 -9999 -9999 -9999 -9999 -9999 -9999 -9999 -9999 -9999 -9999 -9999 -9999 -9999 -9999 -9999 -9999 -9999 -9999 -9999 -9999 -9999 -9999 -9999 -9999 -9999 -9999 226 194 180 187 174 177 179 183 174 165 158 154 178 170 160 155 162 161 155 155 165 160 139 154 149 209 168 200 159 151 158 168 150 137 135 180 141 112 108 108 100 98 199 119 125 149 187 95 93 114 89 83 79 80 79 74 71 73 76 68 84 76 62 65 70 70 56 66 61 63 55 60 60 62 62 63 61 56 56 57 57 65 71 68 63 66 62 68 62 49 55 53 55 52 53 51 50 45 40 43 42 31 35 31 33 36 36 42 41 38 47 51 39 44 40 40 38 35 40 19 32 33 37 34 37 51 35 38 33 25 37 40 29 30 31 32 33 40 34 39 37 41 38 34 35 34 36 44 49 49 34 47 41 37 39 41 38 34 36 36 31 36 31 42 35 40 42 37 47 35 42 40 33 37 37 38 36 41 36 35 -9999 -9999 -9999 -9999 -9999 -9999 -9999 -9999 -9999 -9999 -9999 -9999 -9999 -9999 -9999 -9999 -9999 -9999 -9999 -9999 -9999 -9999 -9999 -9999 -9999 -9999 -9999 -9999 -9999 -9999 -9999 -9999 -9999 -9999 -9999 -9999 -9999 -9999 -9999 -9999 -9999 -9999 -9999 -9999 -9999 -9999 -9999 -9999 -9999 -9999 -9999 -9999 -9999 -9999 -9999 -9999 -9999 -9999 -9999 -9999 -9999 -9999 -9999 -9999 -9999
-9999 -9999 -9999 -9999 -9999 -9999 -9999 -9999 -9999 -9999 -9999 -9999 -9999 -9999 -9999 -9999 -9999 -9999 -9999 -9999 -9999 -9999 -9999 -9999 -9999 -9999 -9999 -9999 -9999 -9999 -9999 -9999 -9999 -9999 -9999 -9999 -9999 -9999 -9999 -9999 -9999 -9999 285 233 195 215 170 172 167 169 176 161 157 159 151 161 159 164 155 150 152 156 147 163 157 144 140 146 163 158 164 164 144 148 152 162 178 183 186 187 139 125 116 107 104 109 116 120 168 107 95 111 87 79 77 82 78 79 75 63 69 77 68 67 65 66 65 62 66 64 58 63 52 60 52 63 56 60 56 57 67 67 59 50 63 63 67 68 64 61 62 67 58 54 62 35 50 48 48 52 36 38 40 39 44 41 39 45 31 44 41 45 47 43 43 42 41 39 32 18 35 41 39 37 35 40 38 37 39 33 35 41 38 34 35 35 38 33 28 34 35 34 40 38 35 33 34 46 42 39 43 42 44 40 36 38 45 40 39 40 37 30 33 35 31 32 39 42 37 36 40 43 39 39 45 41 30 40 42 36 41 42 42 39 -9999 -9999 -9999 -9999 -9999 -9999 -9999 -9999 -9999 -9999 -9999 -9999 -9999 -9999 -9999 -9999 -9999 -9999 -9999 -9999 -9999 -9999 -9999 -9999 -9999 -9999 -9999 -9999 -9999 -9999 -9999 -9999 -9999 -9999 -9999 -9999 -9999 -9999 -9999 -9999 -9999 -9999 -9999 -9999 -9999 -9999 -9999 -9999 -9999 -9999 -9999 -9999 -9999 -9999 -9999 -9999 -9999 -9999 -9999 -9999 -9999 -9999 -9999 -9999
-9999 -9999 -9999 -9999 -9999 -9999 -9999 -9999 -9999 -9999 -9999 -9999 -9999 -9999 -9999 -9999 -9999 -9999 -9999 -9999 -9999 -9999 -9999 -9999 -9999 -9999 -9999 -9999 -9999 -9999 -9999 -9999 -9999 -9999 -9999 -9999 -9999 -9999 -9999 -9999 -9999 -9999 -9999 245 188 190 207 207 156 159 168 174 158 153 147 159 148 167 150 146 159 160 146 160 148 149 137 158 151 155 154 167 145 140 146 154 177 176 181 215 186 145 144 126 111 104 103 126 103 98 89 106 88 77 77 77 74 71 69 70 72 70 77 68 64 61 66 63 57 58 62 61 62 55 60 59 66 64 59 54 62 61 55 48 59 59 63 66 64 60 63 62 61 57 52 50 51 17 47 50 42 46 39 45 36 43 49 43 47 44 47 45 44 42 42 40 39 40 44 14 27 31 31 33 37 37 35 36 35 28 37 39 40 25 23 36 23 34 38 42 26 38 27 33 13 35 36 39 42 39 41 46 46 43 30 46 45 48 38 40 35 36 34 32 34 39 42 34 39 36 44 37 38 35 39 29 40 34 39 40 36 39 35 32 39 39 -9999 -9999 -9999 -9999 -9999 -9999 -9999 -9999 -9999 -9999 -9999 -9999 -9999 -9999 -9999 -9999 -9999 -9999 -9999 -9999 -9999 -9999 -9999 -9999 -9999 -9999 -9999 -9999 -9999 -9999 -9999 -9999 -9999 -9999 -9999 -9999 -9999 -9999 -9999 -9999 -9999 -9999 -9999 -9999 -9999 -9999 -9999 -9999 -9999 -9999 -9999 -9999 -9999 -9999 -9999 -9999 -9999 -9999 -9999 -9999 -9999 -9999
-9999 -9999 -9999 -9999 -9999 -9999 -9999 -9999 -9999 -9999 -9999 -9999 -9999 -9999 -9999 -9999 -9999 -9999 -9999 -9999 -9999 -9999 -9999 -9999 -9999 -9999 -9999 -9999 -9999 -9999 -9999 -9999 -9999 -9999 -9999 -9999 -9999 -9999 -9999 -9999 -9999 -9999 -9999 231 193 206 269 209 183 151 157 165 166 147 150 151 143 161 142 144 152 145 137 151 141 142 140 149 146 150 158 159 132 137 145 165 161 151 232 232 159 161 155 160 126 103 94 96 95 89 88 82 79 81 76 79 73 74 73 70 70 78 74 73 63 68 65 66 65 62 65 66 62 61 60 61 62 61 60 63 59 65 55 58 55 66 65 61 62 61 61 52 64 60 54 30 50 57 44 52 50 46 57 49 45 43 41 45 44 49 51 45 43 51 41 47 44 40 38 34 33 39 42 35 31 17 22 26 37 42 38 40 38 37 36 37 32 43 37 33 38 35 36 41 33 43 37 38 40 39 38 44 47 47 39 46 46 38 40 46 40 37 42 46 30 34 27 35 38 38 38 40 38 40 42 36 42 43 45 33 36 43 22 41 35 40 -9999 -9999 -9999 -9999 -9999 -9999 -9999 -9999 -9999 -9999 -9999 -9999 -9999 -9999 -9999 -9999 -9999 -9999 -9999 -9999 -9999 -9999 -9999 -9999 -9999 -9999 -9999 -9999 -9999 -9999 -9999 -9999 -9999 -9999 -9999 -9999 -9999 -9999 -9999 -9999 -9999 -9999 -9999 -9999 -9999 -9999 -9999 -9999 -9999 -9999 -9999 -9999 -9999 -9999 -9999 -9999 -9999 -9999 -9999 -9999 -9999 -9999
-9999 -9999 -9999 -9999 -9999 -9999 -9999 -9999 -9999 -9999 -9999 -9999 -9999 -9999 -9999 -9999 -9999 -9999 -9999 -9999 -9999 -9999 -9999 -9999 -9999 -9999 -9999 -9999 -9999 -9999 -9999 -9999 -9999 -9999 -9999 -9999 -9999 -9999 -9999 -9999 -9999 -9999 226 244 201 204 214 233 193 189 153 159 173 160 140 151 139 150 151 137 145 140 151 133 136 134 159 142 150 138 176 153 129 160 158 160 176 196 137 141 192 177 161 121 113 105 102 92 89 87 86 79 76 81 71 70 71 69 73 80 78 96 85 85 68 68 65 65 67 68 70 64 66 57 62 62 63 70 64 60 54 54 55 56 60 58 63 67 69 68 70 59 60 55 53 47 54 44 43 51 49 48 50 38 43 41 49 51 44 48 54 45 48 46 45 50 38 44 32 33 33 40 35 37 34 14 44 36 35 34 37 40 37 37 35 36 37 38 37 36 29 34 37 38 28 42 71 41 37 45 45 38 41 39 37 44 42 41 35 43 47 33 40 46 52 29 29 39 44 42 33 41 34 39 40 29 37 31 36 30 39 30 35 36 32 37 38 37 34 45 -9999 39 -9999 -9999 -9999 -9999 -9999 -9999 -9999 -9999 -9999 -9999 -9999 -9999 -9999 -9999 -9999 -9999 -9999 -9999 -9999 -9999 -9999 -9999 -9999 -9999 -9999 -9999 -9999 -9999 -9999 -9999 -9999 -9999 -9999 -9999 -9999 -9999 -9999 -9999 -9999 -9999 -9999 -9999 -9999 -9999 -9999 -9999 -9999 -9999 -9999 -9999 -9999 -9999 -9999 -9999 -9999 -9999
-9999 -9999 -9999 -9999 -9999 -9999 -9999 -9999 -9999 -9999 -9999 -9999 -9999 -9999 -9999 -9999 -9999 -9999 -9999 -9999 -9999 -9999 -9999 -9999 -9999 -9999 -9999 -9999 -9999 -9999 -9999 -9999 -9999 -9999 -9999 -9999 -9999 -9999 -9999 -9999 -9999 -9999 274 198 216 199 178 188 171 165 155 149 152 156 146 136 141 138 136 142 144 136 129 141 140 126 138 133 138 168 195 143 258 237 220 171 149 174 166 135 134 140 177 181 117 97 101 91 96 84 93 84 91 80 80 71 74 71 87 135 84 109 167 79 76 69 67 68 63 60 60 63 61 60 63 60 57 59 68 61 56 59 56 60 65 65 69 75 66 62 64 64 67 49 56 44 62 45 51 52 60 55 49 52 52 46 48 46 50 43 48 51 51 47 43 43 46 43 38 35 36 20 41 26 35 35 35 33 40 39 42 36 21 40 32 27 33 36 31 36 39 27 45 37 36 32 33 40 42 37 41 38 44 41 43 37 40 41 36 45 37 39 50 47 42 38 32 38 40 34 44 31 37 33 44 34 35 37 39 39 39 37 33 42 35 39 32 42 35 46 37 43 -9999 -9999 -9999 -9999 -9999 -9999 -9999 -9999 -9999 -9999 -9999 -9999 -9999 -9999 -9999 -9999 -9999 -9999 -9999 -9999 -9999 -9999 -9999 -9999 -9999 -9999 -9999 -9999 -9999 -9999 -9999 -9999 -9999 -9999 -9999 -9999 -9999 -9999 -9999 -9999 -9999 -9999 -9999 -9999 -9999 -9999 -9999 -9999 -9999 -9999 -9999 -9999 -9999 -9999 -9999 -9999
-9999 -9999 -9999 -9999 -9999 -9999 -9999 -9999 -9999 -9999 -9999 -9999 -9999 -9999 -9999 -9999 -9999 -9999 -9999 -9999 -9999 -9999 -9999 -9999 -9999 -9999 -9999 -9999 -9999 -9999 -9999 -9999 -9999 -9999 -9999 -9999 -9999 -9999 -9999 -9999 -9999 -9999 235 225 203 201 168 169 158 278 197 156 150 151 148 144 155 139 150 135 131 132 135 131 122 129 123 125 152 164 128 165 147 178 196 195 132 143 139 162 121 178 207 140 121 113 124 100 89 91 101 96 87 92 81 77 74 85 100 99 105 193 97 126 79 67 68 68 67 65 61 70 59 61 62 61 54 52 59 58 57 65 69 56 65 63 66 68 59 66 62 64 46 57 48 56 56 52 52 43 59 53 49 51 47 47 49 48 55 46 41 47 49 45 52 51 44 44 41 37 39 38 40 35 33 36 13 32 32 35 39 34 38 43 32 35 40 37 33 32 35 37 35 38 49 41 44 40 46 45 48 39 44 41 42 37 41 42 44 36 34 41 39 37 39 37 42 44 35 33 30 30 39 39 38 38 25 34 31 33 38 43 48 35 39 40 35 38 33 55 38 32 44 -9999 -9999 -9999 -9999 -9999 -9999 -9999 -9999 -9999 -9999 -9999 -9999 -9999 -9999 -9999 -9999 -9999 -9999 -9999 -9999 -9999 -9999 -9999 -9999 -9999 -9999 -9999 -9999 -9999 -9999 -9999 -9999 -9999 -9999 -9999 -9999 -9999 -9999 -9999 -9999 -9999 -9999 -9999 -9999 -9999 -9999 -9999 -9999 -9999 -9999 -9999 -9999 -9999 -9999 -9999
-9999 -9999 -9999 -9999 -9999 -9999 -9999 -9999 -9999 -9999 -9999 -9999 -9999 -9999 -9999 -9999 -9999 -9999 -9999 -9999 -9999 -9999 -9999 -9999 -9999 -9999 -9999 -9999 -9999 -9999 -9999 -9999 -9999 -9999 -9999 -9999 -9999 -9999 -9999 -9999 -9999 -9999 -9999 278 215 194 191 188 209 196 176 174 164 148 161 150 153 146 158 153 158 149 146 148 132 123 120 122 151 150 123 120 138 155 146 152 152 123 135 134 117 131 148 189 150 129 108 109 90 104 124 107 95 91 86 78 71 83 89 96 95 192 85 115 77 77 65 66 62 58 69 60 62 67 70 60 58 58 62 60 67 63 66 66 61 59 77 70 70 68 65 68 61 61 51 51 52 53 49 44 52 52 57 47 47 51 47 46 50 47 52 61 49 54 43 45 41 44 40 38 35 32 39 38 31 36 34 36 42 39 38 32 38 35 24 35 41 32 34 22 35 36 35 35 39 38 45 41 40 47 40 48 39 44 50 38 36 35 41 40 43 40 33 36 32 33 36 41 43 24 31 35 44 29 35 34 33 34 34 41 41 39 29 41 36 44 36 38 40 34 38 43 46 39 -9999 -9999 -9999 -9999 -9999 -9999 -9999 -9999 -9999 -9999 -9999 -9999 -9999 -9999 -9999 -9999 -9999 -9999 -9999 -9999 -9999 -9999 -9999 -9999 -9999 -9999 -9999 -9999 -9999 -9999 -9999 -9999 -9999 -9999 -9999 -9999 -9999 -9999 -9999 -9999 -9999 -9999 -9999 -9999 -9999 -9999 -9999 -9999 -9999 -9999 -9999 -9999 -9999 -9999
-9999 -9999 -9999 -9999 -9999 -9999 -9999 -9999 -9999 -9999 -9999 -9999 -9999 -9999 -9999 -9999 -9999 -9999 -9999 -9999 -9999 -9999 -9999 -9999 -9999 -9999 -9999 -9999 -9999 -9999 -9999 -9999 -9999 -9999 -9999 -9999 -9999 -9999 -9999 -9999 -9999 -9999 -9999 240 204 241 200 212 232 235 176 164 162 184 173 187 155 163 179 193 183 197 158 145 148 160 129 128 122 136 117 118 138 205 201 129 128 117 119 142 108 117 143 192 173 136 118 101 99 113 148 169 110 101 87 84 79 79 82 86 112 120 74 114 84 69 83 74 64 67 68 66 69 63 60 58 58 60 60 62 66 63 63 69 57 58 69 66 67 66 64 67 61 45 57 56 55 61 55 50 53 54 50 52 54 50 51 50 47 48 48 46 52 45 50 45 49 37 36 38 40 34 39 39 35 34 28 37 41 40 38 43 36 42 36 39 32 34 36 29 11 35 35 46 44 42 36 43 38 40 38 40 44 35 41 36 38 42 39 41 41 37 36 35 31 33 36 33 33 33 33 41 32 21 35 34 46 34 35 36 34 33 47 35 28 36 34 36 44 42 35 38 44 37 39 34 43 44 -9999 -9999 -9999 -9999 -9999 -9999 -9999 -9999 -9999 -9999 -9999 -9999 -9999 -9999 -9999 -9999 -9999 -9999 -9999 -9999 -9999 -9999 -9999 -9999 -9999 -9999 -9999 -9999 -9999 -9999 -9999 -9999 -9999 -9999 -9999 -9999 -9999 -9999 -9999 -9999 -9999 -9999 -9999 -9999 -9999 -9999 -9999 -9999 -9999 -9999
-9999 -9999 -9999 -9999 -9999 -9999 -9999 -9999 -9999 -9999 -9999 -9999 -9999 -9999 -9999 -9999 -9999 -9999 -9999 -9999 -9999 -9999 -9999 -9999 -9999 -9999 -9999 -9999 -9999 -9999 -9999 -9999 -9999 -9999 -9999 -9999 -9999 -9999 -9999 443 372 352 269 242 283 250 222 230 208 189 180 191 183 214 166 196 174 157 220 352 319 179 274 160 242 140 123 119 151 106 118 119 114 131 151 152 119 128 109 125 106 117 145 136 145 143 128 130 108 108 125 176 188 109 95 88 86 82 81 84 81 82 69 66 83 67 68 81 65 59 65 67 58 59 61 64 65 59 59 65 64 61 63 69 71 69 74 71 70 71 63 64 55 62 61 58 57 50 55 51 51 49 51 52 53 57 51 42 51 47 46 49 46 43 45 52 44 23 38 39 41 23 32 41 38 35 36 38 39 35 41 35 37 37 36 33 37 35 35 40 34 35 44 35 35 29 32 36 36 46 34 37 38 43 39 32 42 39 38 35 41 37 37 27 28 30 38 41 34 34 29 34 24 33 21 36 43 27 30 36 32 34 41 37 26 30 35 29 39 34 32 43 38 41 26 45 -9999 -9999 -9999 -9999 -9999 -9999 -9999 -9999 -9999 -9999 -9999 -9999 -9999 -9999 -9999 -9999 -9999 -9999 -9999 -9999 -9999 -9999 -9999 -9999 -9999 -9999 -9999 -9999 -9999 -9999 -9999 -9999 -9999 -9999 -9999 -9999 -9999 -9999 -9999 -9999 -9999 -9999 -9999 -9999 -9999 -9999 -9999 -9999 -9999 -9999 -9999 -9999
-9999 -9999 -9999 -9999 -9999 -9999 -9999 -9999 -9999 -9999 -9999 -9999 -9999 -9999 -9999 -9999 -9999 -9999 -9999 -9999 -9999 -9999 -9999 -9999 -9999 -9999 -9999 -9999 -9999 -9999 -9999 -9999 -9999 -9999 -9999 -9999 -9999 -9999 -9999 313 287 393 317 373 274 335 288 237 210 232 246 217 216 212 178 189 205 179 169 232 313 268 276 183 306 330 275 272 161 124 146 126 107 121 147 126 132 109 105 107 104 107 133 119 124 104 100 115 118 100 104 118 155 130 109 91 84 80 84 78 77 77 70 74 73 69 75 69 76 71 66 64 64 65 66 63 67 54 70 67 66 76 77 72 84 71 69 73 65 69 56 56 58 49 52 62 57 46 48 54 53 49 51 50 57 54 56 47 50 48 55 53 48 50 35 44 46 43 26 39 36 34 30 46 38 35 42 34 37 38 39 32 44 33 36 35 36 34 30 38 42 35 35 33 33 39 41 35 33 34 35 36 43 40 41 39 36 27 35 31 41 31 30 42 38 31 37 38 32 32 38 39 39 35 43 34 37 41 31 33 33 39 33 28 30 30 32 38 38 38 37 29 42 40 39 41 -9999 -9999 -9999 -9999 -9999 -9999 -9999 -9999 -9999 -9999 -9999 -9999 -9999 -9999 -9999 -9999 -9999 -9999 -9999 -9999 -9999 -9999 -9999 -9999 -9999 -9999 -9999 -9999 -9999 -9999 -9999 -9999 -9999 -9999 -9999 -9999 -9999 -9999 -9999 -9999 -9999 -9999 -9999 -9999 -9999 -9999 -9999 -9999 -9999 -9999 -9999 -9999
-9999 -9999 -9999 -9999 -9999 -9999 -9999 -9999 -9999 -9999 -9999 -9999 -9999 -9999 -9999 -9999 -9999 -9999 -9999 -9999 -9999 -9999 -9999 -9999 -9999 -9999 -9999 -9999 -9999 -9999 -9999 -9999 -9999 -9999 -9999 -9999 -9999 -9999 -9999 402 375 273 291 233 328 313 320 348 326 276 311 301 235 230 187 194 177 162 175 203 222 249 182 176 241 273 318 183 262 199 209 127 114 237 163 131 125 111 101 105 104 102 118 125 128 115 97 96 99 93 92 94 104 98 95 106 76 75 71 80 72 75 78 65 72 70 71 70 73 67 65 68 62 66 63 65 62 67 65 78 73 78 77 72 80 80 76 73 70 57 59 56 67 23 63 56 39 58 55 52 49 50 48 54 42 44 46 54 51 49 45 45 46 45 45 45 46 47 42 42 37 36 41 43 35 37 33 33 35 29 31 43 30 36 36 37 37 32 35 37 34 38 35 32 31 37 35 38 31 33 37 37 39 33 34 32 33 38 28 35 41 39 38 35 36 35 41 40 35 32 35 39 35 32 35 44 23 36 32 31 31 28 32 32 24 26 30 30 27 36 36 35 41 38 35 45 -9999 -9999 -9999 -9999 -9999 -9999 -9999 -9999 -9999 -9999 -9999 -9999 -9999 -9999 -9999 -9999 -9999 -9999 -9999 -9999 -9999 -9999 -9999 -9999 -9999 -9999 -9999 -9999 -9999 -9999 -9999 -9999 -9999 -9999 -9999 -9999 -9999 -9999 -9999 -9999 -9999 -9999 -9999 -9999 -9999 -9999 -9999 -9999 -9999 -9999 -9999 -9999
-9999 -9999 -9999 -9999 -9999 -9999 -9999 -9999 -9999 -9999 -9999 -9999 -9999 -9999 -9999 -9999 -9999 -9999 -9999 -9999 -9999 -9999 -9999 -9999 -9999 -9999 -9999 -9999 -9999 -9999 -9999 -9999 -9999 -9999 -9999 -9999 -9999 -9999 -9999 463 338 412 422 332 337 213 292 281 270 331 274 306 325 209 207 217 180 198 180 192 250 312 302 287 196 268 263 190 271 270 243 201 194 234 216 139 115 120 110 100 99 111 101 101 108 97 92 92 91 94 85 80 90 79 81 74 76 75 71 73 78 70 73 70 79 74 72 64 66 60 66 62 68 66 73 69 70 73 70 80 75 77 85 80 81 75 68 75 64 64 68 71 70 69 69 55 51 55 59 57 53 37 47 53 53 52 44 47 47 49 48 40 44 46 41 44 41 40 38 33 36 34 39 45 42 35 33 35 36 33 34 32 25 39 29 24 33 37 30 25 31 49 31 35 38 32 34 32 31 31 33 33 37 38 37 34 37 38 36 37 39 34 39 37 37 40 36 41 35 36 30 35 46 43 47 37 56 43 38 34 38 39 29 26 31 28 35 25 30 38 36 36 31 38 36 48 -9999 -9999 -9999 -9999 -9999 -9999 -9999 -9999 -9999 -9999 -9999 -9999 -9999 -9999 -9999 -9999 -9999 -9999 -9999 -9999 -9999 -9999 -9999 -9999 -9999 -9999 -9999 -9999 -9999 -9999 -9999 -9999 -9999 -9999 -9999 -9999 -9999 -9999 -9999 -9999 -9999 -9999 -9999 -9999 -9999 -9999 -9999 -9999 -9999 -9999 -9999 -9999
-9999 -9999 -9999 -9999 -9999 -9999 -9999 -9999 -9999 -9999 -9999 -9999 -9999 -9999 -9999 -9999 -9999 -9999 -9999 -9999 -9999 -9999 -9999 -9999 -9999 -9999 -9999 -9999 -9999 -9999 -9999 -9999 -9999 -9999 -9999 -9999 -9999 -9999 -9999 539 409 512 408 298 260 202 224 294 299 312 363 218 224 250 234 185 197 175 199 231 214 221 276 338 346 309 220 234 318 176 164 157 303 132 220 137 117 108 103 91 97 100 97 101 103 98 89 84 82 90 78 80 82 75 74 75 77 72 79 77 70 76 76 74 69 71 66 71 70 65 70 71 73 73 76 76 83 74 77 82 78 80 81 79 77 73 65 66 65 61 62 66 73 68 58 58 60 65 54 51 41 38 53 52 48 52 44 52 47 45 47 48 41 44 40 33 32 36 38 39 38 43 44 49 41 36 56 46 36 37 30 25 29 44 31 40 29 37 33 36 29 30 32 36 42 33 30 34 40 30 32 35 36 36 40 29 41 32 30 34 40 37 36 36 42 42 33 41 33 46 38 35 37 34 43 35 35 33 29 32 30 33 28 30 27 36 23 22 27 37 38 42 40 39 41 37 44 -9999 -9999 -9999 -9999 -9999 -9999 -9999 -9999 -9999 -9999 -9999 -9999 -9999 -9999 -9999 -9999 -9999 -9999 -9999 -9999 -9999 -9999 -9999 -9999 -9999 -9999 -9999 -9999 -9999 -9999 -9999 -9999 -9999 -9999 -9999 -9999 -9999 -9999 -9999 -9999 -9999 -9999 -9999 -9999 -9999 -9999 -9999 -9999 -9999 -9999 -9999
-9999 -9999 -9999 -9999 -9999 -9999 -9999 -9999 -9999 -9999 -9999 -9999 -9999 -9999 -9999 -9999 -9999 -9999 -9999 -9999 -9999 -9999 -9999 -9999 -9999 -9999 -9999 -9999 -9999 -9999 -9999 -9999 -9999 -9999 -9999 -9999 -9999 -9999 -9999 -9999 476 424 382 277 317 306 270 192 222 236 212 301 197 248 300 241 254 200 199 193 204 248 237 267 199 236 248 255 139 232 174 145 176 122 176 125 136 111 105 102 86 92 94 91 87 87 86 93 91 86 86 83 89 76 79 67 63 77 71 72 69 69 73 73 72 69 68 62 67 62 70 70 63 79 81 74 81 79 88 90 81 83 74 75 71 62 70 71 68 70 73 68 75 71 60 64 64 61 54 52 58 57 55 50 51 47 46 43 53 50 56 47 37 49 46 33 31 41 34 45 30 39 39 48 44 50 42 49 40 33 40 32 49 37 30 27 31 35 27 36 34 33 33 28 33 34 37 36 37 41 37 38 31 38 33 42 38 40 44 32 44 47 43 44 40 40 38 39 40 44 38 39 40 37 33 33 41 38 38 32 28 32 28 20 28 32 24 28 25 36 32 38 36 31 48 40 53 37 41 -9999 -9999 52 -9999 -9999 -9999 -9999 -9999 -9999 -9999 -9999 -9999 -9999 -9999 -9999 -9999 -9999 -9999 -9999 -9999 -9999 -9999 -9999 -9999 -9999 -9999 -9999 -9999 -9999 -9999 -9999 -9999 -9999 -9999 -9999 -9999 -9999 -9999 -9999 -9999 -9999 -9999 -9999 -9999 -9999 -9999 -9999 -9999 -9999
-9999 -9999 -9999 -9999 -9999 -9999 -9999 -9999 -9999 -9999 -9999 -9999 -9999 -9999 -9999 -9999 -9999 -9999 -9999 -9999 -9999 -9999 -9999 -9999 -9999 -9999 -9999 -9999 -9999 -9999 -9999 -9999 -9999 -9999 -9999 -9999 -9999 -9999 -9999 -9999 -9999 620 574 462 374 303 205 235 188 208 195 246 297 250 206 247 273 248 261 239 287 225 243 242 200 162 153 175 234 162 195 111 115 116 130 173 260 181 126 103 89 91 92 90 90 88 87 88 82 90 82 88 84 76 77 78 74 74 76 72 76 80 72 71 65 69 67 71 72 66 66 75 65 70 84 88 91 86 89 91 88 83 78 80 79 72 69 74 73 79 73 65 59 65 65 59 56 61 58 55 50 50 60 54 49 51 51 51 48 58 48 47 42 53 43 41 42 42 40 38 48 27 41 48 50 42 47 41 51 55 38 42 31 29 30 34 29 27 18 28 38 27 29 31 39 35 32 40 36 36 37 47 34 28 37 40 32 23 35 31 36 38 26 31 39 39 38 38 38 39 44 44 36 37 37 34 39 45 36 28 46 29 37 28 31 34 35 29 29 36 30 35 44 38 40 42 38 43 41 38 47 34 41 32 -9999 -9999 -9999 -9999 -9999 -9999 -9999 -9999 -9999 -9999 -9999 -9999 -9999 -9999 -9999 -9999 -9999 -9999 -9999 -9999 -9999 -9999 -9999 -9999 -9999 -9999 -9999 -9999 -9999 -9999 -9999 -9999 -9999 -9999 -9999 -9999 -9999 -9999 -9999 -9999 -9999 -9999 -9999 -9999
-9999 -9999 -9999 -9999 -9999 -9999 -9999 -9999 -9999 -9999 -9999 -9999 -9999 -9999 -9999 -9999 -9999 -9999 -9999 -9999 -9999 -9999 -9999 -9999 -9999 -9999 -9999 -9999 -9999 -9999 -9999 -9999 -9999 245 290 418 405 384 420 444 606 376 399 401 415 340 321 295 260 233 187 182 244 266 176 194 261 334 333 303 354 248 284 302 287 205 172 151 125 233 112 166 109 160 113 117 239 243 188 105 86 84 81 89 91 76 78 87 83 88 83 84 82 81 81 79 75 81 84 73 80 74 77 74 91 77 71 75 64 63 68 77 69 79 84 86 93 93 88 85 84 86 79 76 75 71 78 80 69 69 74 73 64 60 62 64 60 60 51 56 48 48 45 51 49 43 46 55 54 57 48 51 40 45 48 51 37 46 48 43 51 46 49 47 43 45 45 45 43 44 51 34 39 40 43 34 25 36 37 25 23 32 13 31 38 36 36 34 32 41 43 37 35 39 33 44 45 40 35 34 49 40 36 34 40 41 41 51 36 43 39 34 43 42 42 37 41 57 37 33 38 35 28 34 22 34 36 32 23 30 44 33 37 47 47 44 48 36 45 38 38 35 32 32 35 37 40 36 34 34 34 36 33 32 31 -9999 -9999 -9999 -9999 -9999 -9999 -9999 -9999 -9999 -9999 -9999 -9999 -9999 -9999 -9999 -9999 -9999 -9999 -9999 -9999 -9999 -9999 -9999 -9999 -9999 -9999 -9999 -9999 -9999 -9999 -9999 -9999 -9999
-9999 -9999 -9999 -9999 -9999 -9999 -9999 -9999 -9999 -9999 -9999 -9999 -9999 -9999 -9999 -9999 -9999 -9999 -9999 -9999 -9999 -9999 -9999 -9999 -9999 -9999 -9999 -9999 -9999 -9999 -9999 -9999 226 239 259 302 413 396 274 426 367 338 354 325 262 346 405 282 214 271 190 230 245 229 193 292 203 200 225 257 319 393 317 232 193 233 262 135 151 137 141 131 152 220 151 111 111 111 111 112 214 206 131 89 116 163 98 91 84 83 85 85 79 72 68 84 79 75 84 76 77 78 76 81 71 71 77 78 67 69 74 78 79 78 86 96 93 83 89 82 79 77 78 80 79 71 80 80 76 66 74 65 64 61 65 55 58 57 58 52 51 51 55 51 43 53 53 53 48 49 52 49 44 53 51 47 48 51 45 47 46 48 58 47 52 47 44 47 41 23 45 42 38 37 38 36 30 27 29 41 39 41 35 32 34 32 34 40 40 38 41 48 38 44 33 39 44 45 33 36 44 39 39 37 35 39 34 41 40 34 48 36 45 42 42 42 55 60 43 38 30 47 51 37 33 33 36 32 34 39 42 20 40 41 43 38 37 44 33 40 41 37 37 36 45 42 35 34 35 31 31 30 33 36 30 39 36 -9999 -9999 -9999 -9999 -9999 -9999 -9999 -9999 -9999 -9999 -9999 -9999 -9999 -9999 -9999 -9999 -9999 -9999 -9999 -9999 -9999 -9999 -9999 -9999 -9999 -9999 -9999 -9999 -9999 -9999 -9999
-9999 -9999 -9999 -9999 -9999 -9999 -9999 -9999 -9999 -9999 -9999 -9999 -9999 -9999 -9999 -9999 -9999 -9999 -9999 -9999 -9999 -9999 -9999 -9999 -9999 -9999 -9999 -9999 -9999 -9999 -9999 -9999 209 229 229 237 261 268 306 298 271 255 308 245 270 289 258 274 256 212 219 193 205 193 200 258 366 221 205 230 238 279 307 323 270 192 146 239 217 170 179 173 135 155 145 111 111 111 111 111 162 174 212 87 189 228 152 110 171 140 86 82 86 89 92 89 97 98 90 88 79 82 97 84 81 79 88 75 75 75 77 88 90 79 90 94 91 84 87 84 83 76 80 65 72 73 79 79 79 72 72 66 63 64 58 60 64 58 55 56 61 48 60 55 57 55 47 51 62 53 55 54 48 52 57 43 40 40 49 51 48 49 34 46 43 39 44 43 44 40 39 51 39 41 37 35 28 32 30 32 31 41 39 34 32 35 34 42 39 35 46 37 43 40 36 40 36 40 42 42 41 37 39 38 36 39 45 34 40 38 40 39 38 36 39 31 28 48 38 36 33 41 39 27 28 34 26 35 30 38 35 28 40 38 37 39 39 36 42 37 34 35 37 26 32 30 41 35 32 34 33 38 28 30 33 29 43 38 -9999 -9999 -9999 -9999 -9999 -9999 -9999 -9999 -9999 -9999 -9999 -9999 -9999 -9999 -9999 -9999 -9999 -9999 -9999 -9999 -9999 -9999 -9999 -9999 -9999 -9999 -9999 -9999 -9999 -9999
-9999 -9999 -9999 -9999 -9999 -9999 -9999 -9999 -9999 -9999 -9999 -9999 -9999 -9999 -9999 -9999 -9999 -9999 -9999 -9999 -9999 -9999 -9999 -9999 -9999 -9999 -9999 -9999 -9999 -9999 -9999 -9999 203 216 209 215 234 271 285 246 281 281 274 309 259 197 203 218 213 233 222 173 195 174 198 192 256 401 304 235 213 223 234 253 361 259 249 215 213 260 365 219 165 192 196 145 124 118 122 111 111 133 115 92 137 136 132 118 114 103 90 80 139 154 95 102 116 117 106 95 88 85 90 83 84 77 82 78 79 81 76 88 89 85 97 99 99 86 92 83 89 89 81 85 78 71 78 75 73 73 66 66 70 72 66 64 64 76 54 63 56 53 53 57 69 56 60 58 59 58 59 54 60 55 57 48 51 44 52 48 48 42 43 48 43 44 42 46 29 40 42 35 30 35 38 39 36 36 31 28 37 37 34 36 33 34 32 41 38 42 42 40 40 39 35 37 37 38 35 33 39 38 35 42 43 37 42 41 37 38 43 47 40 36 38 40 45 46 38 39 38 38 42 30 32 34 26 20 30 30 31 38 34 28 43 44 39 31 51 36 53 34 30 42 39 36 41 33 32 44 30 29 30 32 32 31 32 37 42 40 -9999 -9999 -9999 -9999 -9999 -9999 -9999 -9999 -9999 -9999 -9999 -9999 -9999 -9999 -9999 -9999 -9999 -9999 -9999 -9999 -9999 -9999 -9999 -9999 -9999 -9999 -9999 -9999
-9999 -9999 -9999 -9999 -9999 -9999 -9999 -9999 -9999 -9999 -9999 -9999 -9999 -9999 -9999 322 309 282 -9999 -9999 -9999 -9999 -9999 -9999 -9999 -9999 -9999 -9999 -9999 -9999 236 201 199 195 201 205 213 212 231 236 217 222 221 216 227 261 297 278 211 182 182 164 190 160 245 327 297 322 540 352 290 289 338 293 376 370 268 229 235 282 303 295 272 238 129 116 152 195 144 113 111 116 122 145 137 127 126 128 93 92 86 89 99 114 116 110 235 217 158 156 109 94 91 92 86 86 89 82 82 94 87 85 95 100 94 95 97 88 94 84 84 88 82 75 79 74 73 58 71 76 78 71 69 58 63 64 60 61 55 59 54 60 58 59 58 58 57 61 61 57 62 60 60 52 55 49 47 57 43 31 49 52 48 46 44 42 40 41 27 38 37 38 33 39 40 41 46 40 23 45 37 35 34 37 42 40 47 42 36 41 42 54 42 42 38 40 44 37 37 35 39 34 35 42 41 34 34 33 40 37 38 39 42 41 21 39 37 41 38 30 35 36 34 32 35 44 30 33 34 33 31 34 32 35 34 30 35 38 37 30 33 29 26 35 32 46 39 35 31 34 35 25 35 25 27 29 26 38 31 35 -9999 -9999 -9999 -9999 -9999 -9999 -9999 -9999 -9999 -9999 -9999 -9999 -9999 -9999 -9999 -9999 -9999 -9999 -9999 -9999 -9999 -9999 -9999 -9999 -9999 -9999 -9999 -9999
-9999 -9999 -9999 -9999 -9999 -9999 -9999 -9999 -9999 -9999 -9999 -9999 -9999 292 317 323 265 255 -9999 -9999 -9999 -9999 -9999 -9999 -9999 -9999 -9999 -9999 -9999 325 223 249 194 185 174 191 193 195 206 207 212 191 187 193 209 204 233 227 220 215 209 190 160 163 189 190 326 287 351 433 385 347 355 392 388 355 392 275 209 203 225 237 267 157 154 179 186 150 149 140 111 111 132 152 128 128 110 107 100 89 91 91 92 120 116 132 126 143 148 133 108 99 103 93 96 93 93 82 86 92 92 85 84 88 92 90 86 90 92 91 79 79 85 75 81 79 79 75 73 60 70 80 74 88 62 65 66 55 60 52 52 62 59 63 50 60 64 61 57 65 53 47 62 57 53 51 55 55 46 46 49 51 47 46 36 45 46 44 50 41 33 45 29 44 43 45 34 42 41 43 40 44 35 40 44 45 33 36 36 41 41 45 42 38 40 41 40 32 38 37 44 36 38 39 33 37 37 31 32 40 45 41 43 39 43 41 40 62 38 34 37 38 35 32 39 35 34 32 36 30 30 31 45 37 35 32 39 34 36 40 27 37 26 35 29 32 34 36 34 31 29 22 22 37 30 22 29 28 28 33 34 -9999 -9999 -9999 -9999 -9999 -9999 -9999 -9999 -9999 -9999 -9999 -9999 -9999 -9999 -9999 -9999 -9999 -9999 -9999 -9999 -9999 -9999 -9999 -9999 -9999 -9999 -9999
-9999 -9999 -9999 -9999 -9999 -9999 -9999 -9999 -9999 -9999 -9999 -9999 -9999 311 251 254 246 298 -9999 -9999 -9999 -9999 -9999 -9999 -9999 -9999 -9999 -9999 -9999 323 303 251 217 210 175 182 183 187 189 179 194 169 169 182 191 212 193 201 226 227 305 233 161 162 194 205 227 221 233 293 515 429 495 582 608 726 629 364 261 221 170 230 260 258 265 187 184 183 150 184 114 138 130 135 122 120 111 97 97 98 95 98 101 110 115 107 101 108 107 97 103 96 102 108 121 107 92 92 93 93 92 81 83 81 92 86 90 86 76 86 76 80 78 54 72 73 80 75 77 67 75 73 73 82 75 60 64 60 51 57 62 61 55 63 56 69 59 63 59 50 61 57 56 32 58 52 52 48 44 50 48 46 36 44 46 40 44 42 41 38 43 37 44 45 46 46 39 35 53 42 42 42 43 53 52 46 43 37 46 39 39 38 41 39 36 40 43 37 45 38 41 36 38 37 40 41 35 33 42 41 49 46 59 40 47 46 40 37 46 32 41 38 31 31 40 30 43 43 37 24 40 44 38 38 31 35 35 33 34 30 31 32 36 29 30 29 31 33 34 29 35 38 32 36 28 26 29 27 34 37 37 33 33 -9999 -9999 -9999 -9999 -9999 -9999 -9999 -9999 -9999 -9999 -9999 -9999 -9999 -9999 -9999 -9999 -9999 -9999 -9999 -9999 -9999 -9999 -9999 -9999 -9999
-9999 -9999 -9999 -9999 -9999 -9999 -9999 -9999 -9999 -9999 -9999 -9999 297 277 256 248 230 254 336 -9999 -9999 -9999 -9999 -9999 -9999 -9999 -9999 -9999 -9999 -9999 332 343 231 216 205 186 169 178 178 181 187 166 161 168 172 183 177 199 202 206 206 204 196 151 179 191 230 253 398 331 380 600 719 682 559 562 451 339 281 176 161 169 260 196 197 267 188 156 162 164 145 161 148 166 218 162 142 112 109 97 98 92 100 104 98 95 94 98 95 92 89 93 90 87 99 113 130 123 114 107 96 86 87 82 80 87 87 88 82 86 84 75 72 78 69 74 66 72 72 74 72 73 67 77 64 70 66 64 59 63 66 57 66 53 61 55 63 62 57 62 59 49 50 52 49 40 51 52 47 30 53 39 44 44 30 43 44 46 40 42 32 37 32 39 45 39 41 44 39 42 41 41 43 43 62 59 40 36 36 42 40 37 51 42 45 46 48 39 39 36 40 31 35 40 44 38 36 41 43 40 33 50 31 39 39 46 38 39 36 31 48 37 33 40 33 41 32 42 39 29 41 36 36 39 36 37 41 33 34 37 28 37 31 27 40 34 33 27 41 37 27 28 29 29 36 25 28 28 30 30 30 30 36 -9999 -9999 -9999 -9999 -9999 -9999 -9999 -9999 -9999 -9999 -9999 -9999 -9999 -9999 -9999 -9999 -9999 -9999 -9999 -9999 -9999 -9999 -9999 -9999 -9999
-9999 -9999 -9999 -9999 -9999 -9999 -9999 -9999 -9999 -9999 -9999 -9999 285 221 213 223 223 258 299 291 280 -9999 -9999 -9999 -9999 -9999 -9999 -9999 -9999 259 278 285 229 203 182 183 161 175 160 177 183 179 164 174 166 185 173 183 183 179 181 188 150 220 174 193 293 216 286 304 409 466 424 471 323 623 644 539 324 215 152 231 274 180 163 176 246 217 177 146 147 155 132 142 156 132 135 109 116 96 108 95 107 107 98 94 102 106 87 80 86 86 95 91 94 94 99 115 151 116 97 87 84 74 76 84 80 85 79 78 75 75 74 69 62 74 71 71 57 67 71 61 69 71 69 64 55 55 64 64 63 57 57 61 58 60 59 60 57 60 57 52 53 39 46 46 52 25 45 48 52 45 49 47 33 46 43 36 45 40 40 41 35 37 36 35 41 43 35 33 40 47 39 39 44 36 41 35 44 38 39 39 40 38 44 42 36 38 35 42 36 39 39 39 38 35 37 37 42 41 45 40 41 40 47 40 39 33 34 33 34 35 37 41 48 41 30 38 34 35 32 40 43 30 31 41 35 33 39 31 26 27 26 30 30 30 32 36 29 36 30 29 33 26 32 33 35 27 30 52 32 42 35 39 38 40 -9999 -9999 -9999 -9999 -9999 -9999 -9999 -9999 -9999 -9999 -9999 -9999 -9999 -9999 -9999 -9999 -9999 -9999 -9999 -9999 -9999 -9999
-9999 -9999 -9999 -9999 -9999 -9999 -9999 -9999 -9999 -9999 -9999 -9999 244 270 209 235 219 228 242 268 302 -9999 -9999 333 -9999 -9999 -9999 -9999 -9999 243 300 266 201 266 191 188 172 160 172 172 175 163 152 162 175 169 158 170 172 176 162 171 206 169 195 197 198 207 205 296 318 329 535 276 344 425 522 426 333 193 143 176 217 155 160 166 163 165 180 149 133 136 126 120 132 127 120 123 116 109 105 106 109 103 104 95 90 91 88 84 85 82 82 80 87 83 93 89 87 90 94 86 83 79 76 75 79 80 79 80 75 72 69 73 67 68 67 64 61 69 67 57 67 67 65 64 62 70 66 67 66 61 61 63 52 57 55 57 56 52 56 52 47 49 44 46 36 50 46 45 46 40 32 44 33 26 23 41 45 40 36 46 36 44 38 38 35 32 35 31 37 40 24 39 29 37 42 29 39 44 38 48 41 42 43 44 40 41 44 41 45 40 46 37 38 38 34 40 45 37 39 41 42 40 39 41 39 34 43 39 42 41 37 32 35 34 54 35 37 34 38 42 50 38 39 43 33 38 40 32 36 40 46 30 30 30 28 35 32 28 37 30 27 27 47 29 33 29 25 39 29 38 27 30 38 46 35 29 40 -9999 -9999 -9999 -9999 -9999 -9999 -9999 -9999 -9999 -9999 -9999 -9999 -9999 -9999 -9999 -9999 -9999 -9999 -9999
-9999 -9999 -9999 -9999 -9999 -9999 -9999 -9999 -9999 -9999 -9999 -9999 259 197 224 210 189 205 247 215 250 279 310 256 315 288 -9999 -9999 317 239 237 242 259 244 242 191 191 179 177 164 171 154 144 175 161 159 153 165 166 165 166 152 146 168 180 183 174 215 234 281 286 273 250 206 242 238 291 303 235 158 147 167 167 146 158 141 182 166 156 145 145 134 127 110 129 115 112 113 104 101 94 101 101 104 99 102 91 90 83 75 83 81 80 83 85 85 81 84 81 82 100 85 80 78 70 78 73 75 77 78 77 69 69 69 69 62 71 66 64 59 64 62 64 62 61 66 61 68 59 64 67 57 63 53 54 59 61 50 50 51 51 53 58 52 48 40 44 33 36 51 35 31 40 43 33 38 48 32 42 42 38 44 33 16 41 41 29 32 28 20 34 38 34 42 21 36 36 44 40 38 39 39 40 34 47 36 41 38 40 38 39 42 36 32 36 41 35 42 44 38 43 38 39 40 42 43 36 33 38 39 41 39 38 38 33 43 36 42 35 36 39 56 49 34 50 49 38 41 52 35 30 35 31 34 28 32 26 29 32 28 37 28 33 31 33 26 25 28 28 23 33 30 34 26 35 31 29 32 33 -9999 39 -9999 -9999 -9999 -9999 -9999 -9999 -9999 -9999 -9999 -9999 -9999 -9999 -9999 -9999 -9999 -9999 -9999
-9999 -9999 -9999 -9999 -9999 -9999 -9999 -9999 -9999 -9999 -9999 311 260 221 223 187 217 218 209 188 218 223 294 228 254 235 246 286 248 244 225 234 212 278 251 218 222 195 151 152 160 150 154 166 164 185 158 147 148 160 153 142 175 172 183 247 294 250 259 317 239 252 245 250 203 176 229 192 244 161 146 138 152 149 157 138 168 143 162 144 138 133 134 112 134 140 115 106 102 104 92 91 98 99 103 99 93 84 78 82 79 81 82 89 78 71 77 79 74 69 78 76 88 74 72 76 76 72 77 75 73 71 71 70 67 65 70 66 67 61 67 67 64 58 64 62 62 64 57 65 63 60 60 54 59 47 55 47 53 50 48 46 43 47 19 33 39 45 42 46 47 36 45 48 41 38 45 33 47 39 31 29 39 42 34 36 40 36 17 39 39 37 34 47 36 43 45 43 38 38 41 37 41 37 40 32 37 45 41 40 44 40 40 39 39 36 55 32 30 35 42 48 39 36 37 44 27 29 32 36 36 34 37 29 31 40 36 36 38 37 48 38 37 37 40 36 42 40 36 41 40 40 36 28 28 30 37 30 30 34 32 32 28 23 24 30 26 21 33 27 21 29 21 29 32 31 35 24 33 32 34 43 -9999 -9999 -9999 -9999 -9999 -9999 -9999 -9999 -9999 -9999 -9999 -9999 -9999 -9999 -9999 -9999
-9999 -9999 -9999 -9999 -9999 -9999 -9999 -9999 -9999 -9999 -9999 361 284 254 236 217 180 218 231 216 193 217 263 228 208 206 204 237 255 227 223 242 212 213 233 214 203 192 176 141 163 153 142 147 162 177 143 135 159 168 151 138 153 165 172 202 260 352 336 227 217 232 169 160 158 174 169 189 227 196 198 186 137 133 148 136 143 135 151 151 146 166 144 117 109 130 125 100 91 89 87 98 93 96 110 92 89 95 83 86 83 84 78 85 87 74 76 78 79 70 72 74 76 72 69 71 72 71 80 69 67 62 79 70 71 67 68 68 66 72 72 60 71 70 63 64 56 68 60 64 61 66 64 61 51 58 62 55 53 51 54 52 43 34 51 43 43 27 47 45 48 50 41 39 41 41 42 38 33 39 39 20 36 30 39 22 34 43 37 39 38 49 40 40 37 39 51 40 47 33 41 40 33 41 38 36 36 33 38 44 42 41 33 40 30 40 38 40 39 45 39 37 42 41 39 41 33 39 46 37 34 40 36 32 37 35 35 35 38 37 42 36 37 39 38 42 44 48 36 33 39 32 33 37 35 20 39 32 37 28 36 36 32 34 38 28 40 46 28 32 30 24 24 23 27 33 33 35 33 39 40 35 -9999 -9999 -9999 -9999 -9999 -9999 -9999 -9999 -9999 -9999 -9999 -9999 -9999 -9999 -9999 -9999
-9999 -9999 -9999 -9999 -9999 -9999 -9999 -9999 -9999 -9999 -9999 263 299 241 217 190 181 183 194 174 219 229 228 259 183 209 216 210 211 206 192 208 179 210 206 219 180 184 164 144 149 147 136 138 162 164 160 134 157 167 139 133 137 157 167 243 203 341 351 198 170 160 163 144 168 154 177 158 156 209 232 177 200 158 132 132 134 133 149 153 160 156 151 129 108 91 112 105 93 86 92 90 88 98 103 102 101 96 95 92 86 88 80 79 84 75 77 80 86 75 77 77 73 73 67 67 69 71 73 63 68 62 67 59 67 59 67 64 67 47 53 66 67 62 58 67 60 63 67 60 64 80 62 62 64 56 61 56 50 50 49 43 43 46 50 49 33 29 44 52 51 42 23 37 42 50 42 28 41 41 32 37 41 36 36 49 45 41 39 38 38 56 38 37 35 69 37 41 37 38 41 38 41 42 46 39 32 34 37 33 33 36 44 37 45 36 37 33 38 37 49 40 47 40 40 38 14 29 32 36 38 40 37 31 38 47 43 44 43 45 41 43 38 42 41 32 49 51 31 35 33 31 43 38 47 38 41 35 29 26 36 37 40 37 43 36 33 25 32 21 28 27 25 23 43 27 24 24 35 34 34 35 45 35 -9999 41 36 -9999 -9999 -9999 -9999 -9999 -9999 -9999 -9999 -9999 -9999 -9999
-9999 -9999 -9999 -9999 -9999 -9999 -9999 -9999 -9999 -9999 -9999 282 215 238 275 243 193 188 257 158 176 229 221 214 184 207 185 180 203 175 203 205 184 217 190 207 187 179 185 179 149 154 164 136 153 166 148 140 144 153 137 154 156 182 308 214 182 194 194 251 223 166 167 146 160 166 149 146 160 182 182 225 157 180 196 157 132 126 131 134 148 139 142 131 121 105 100 100 88 88 89 88 88 98 101 97 94 88 87 91 90 87 79 82 78 74 75 77 80 72 75 76 85 72 70 71 71 72 66 65 67 66 70 58 65 62 61 56 64 63 55 60 66 54 59 60 62 56 59 47 61 65 58 58 57 58 50 59 51 53 53 53 53 49 55 52 53 52 43 54 50 52 46 44 33 36 40 62 43 43 42 40 42 37 44 21 35 36 41 41 52 34 42 43 41 41 40 44 43 42 39 38 42 40 35 36 38 36 32 37 48 42 44 46 40 41 40 32 34 32 36 37 38 40 42 37 37 31 36 42 42 39 39 39 33 41 43 44 37 43 42 40 47 41 34 37 36 45 37 45 48 36 40 35 33 32 38 33 33 38 35 33 29 35 38 31 27 25 34 29 37 27 43 30 28 28 25 27 31 30 27 36 31 37 34 34 31 37 -9999 -9999 -9999 -9999 -9999 -9999 -9999 -9999 -9999 -9999
-9999 -9999 -9999 -9999 -9999 -9999 -9999 -9999 -9999 -9999 358 337 316 202 229 219 211 206 189 203 195 217 223 215 207 177 165 202 218 155 197 178 208 248 198 206 176 163 159 169 179 162 144 162 139 165 146 134 135 131 156 168 262 265 225 183 157 219 277 217 203 170 141 140 138 141 146 132 150 147 157 166 166 155 149 143 141 130 122 145 145 144 121 110 113 117 113 92 92 89 85 86 80 87 99 96 94 87 83 82 90 84 86 79 71 66 76 77 72 72 74 74 75 76 62 73 70 68 72 70 58 68 65 64 65 64 74 68 63 63 65 62 62 47 60 60 56 42 43 63 47 54 58 52 56 52 46 60 54 49 46 50 63 57 51 52 54 54 47 58 47 50 41 48 44 50 52 46 51 49 21 39 40 35 48 24 42 41 43 31 40 43 44 41 43 50 34 39 38 45 36 39 40 35 31 34 39 39 38 42 38 41 42 40 38 33 37 41 36 37 37 32 39 35 34 41 41 36 35 49 35 39 36 28 43 40 41 41 42 43 42 40 35 48 45 44 48 43 35 31 31 33 41 34 32 35 35 35 25 41 31 39 34 31 34 28 29 26 32 37 27 43 32 31 28 33 26 26 30 24 35 39 23 39 31 33 39 -9999 -9999 -9999 -9999 -9999 -9999 -9999 -9999 -9999 -9999 -9999
-9999 -9999 -9999 -9999 -9999 -9999 -9999 -9999 -9999 261 264 289 279 324 263 244 210 189 195 168 169 221 183 193 201 218 163 186 204 189 181 192 201 239 203 178 193 172 164 144 174 182 145 141 145 163 149 201 121 176 203 176 183 154 166 144 165 226 249 222 148 160 161 129 125 140 139 125 128 136 142 146 145 149 169 177 135 135 116 128 139 133 129 120 104 93 96 87 78 78 79 87 85 80 90 91 85 83 87 80 78 79 79 76 69 72 73 74 77 81 73 75 72 71 67 64 65 63 65 63 54 54 63 66 67 68 66 77 59 57 63 67 69 49 54 56 59 61 62 67 52 61 56 56 48 50 53 59 45 49 54 57 35 52 36 59 52 43 33 44 51 53 51 60 47 46 51 51 44 41 41 41 42 54 39 18 42 47 40 40 40 43 42 48 46 44 38 37 42 34 43 35 37 35 39 33 39 42 43 38 41 41 38 36 38 40 35 41 38 36 40 40 35 42 32 31 29 39 56 33 38 29 38 31 38 38 40 36 40 42 48 36 37 45 36 39 49 40 33 40 37 40 34 35 41 43 35 36 31 33 35 36 31 40 37 43 35 35 28 33 39 33 40 25 31 34 29 29 23 22 28 28 29 30 35 36 -9999 -9999 -9999 -9999 -9999 -9999 -9999 -9999 -9999 -9999 -9999 -9999
-9999 -9999 -9999 -9999 -9999 -9999 -9999 437 321 263 235 240 247 309 380 232 203 169 169 180 195 196 219 219 161 185 169 208 209 201 172 174 187 207 201 189 161 161 142 142 160 166 145 134 129 148 167 152 118 135 132 152 153 158 144 146 161 298 156 177 132 168 131 126 123 135 140 128 123 129 130 129 137 150 158 155 154 143 122 111 131 120 110 108 101 92 87 89 106 93 99 91 81 84 92 91 84 82 84 80 81 82 82 81 72 78 72 74 74 72 59 70 68 65 67 63 69 64 54 60 66 65 68 67 62 65 60 66 57 54 63 66 54 61 67 59 60 60 63 62 56 58 56 60 58 50 56 37 49 43 48 29 59 58 44 55 60 55 56 52 46 52 57 50 49 54 45 43 46 24 18 53 41 44 45 40 49 45 44 34 40 36 45 57 45 43 42 39 44 39 42 41 33 41 39 41 42 42 45 40 40 44 40 47 33 45 32 47 38 38 41 37 42 35 38 42 33 29 39 39 33 35 31 35 38 44 40 34 47 47 43 44 38 41 38 37 50 41 37 40 35 42 43 37 35 35 35 40 39 29 30 39 40 39 37 35 46 25 31 37 37 33 37 31 31 29 31 30 25 30 22 30 34 39 35 33 -9999 -9999 -9999 -9999 -9999 -9999 -9999 -9999 -9999 -9999 -9999 -9999
-9999 -9999 -9999 -9999 -9999 -9999 389 279 290 319 260 223 244 232 245 332 205 218 176 157 167 185 200 216 222 171 168 183 216 184 173 154 189 179 177 194 177 167 162 153 153 147 165 161 140 147 158 146 123 138 163 154 143 167 143 137 156 233 146 164 126 139 129 113 126 137 146 130 113 122 128 122 129 131 141 151 156 130 118 113 120 120 104 95 126 124 117 123 111 114 99 89 85 82 90 90 88 86 80 84 71 76 77 80 77 69 72 69 73 69 66 68 65 66 61 65 64 72 58 63 60 60 59 50 68 60 42 65 48 53 56 62 53 57 58 59 54 59 63 64 63 57 57 60 62 62 63 57 58 53 45 58 46 44 54 62 57 57 49 52 60 50 49 42 56 53 55 50 50 48 52 44 53 51 42 44 44 44 51 47 49 49 46 56 52 42 43 43 45 43 41 46 31 31 45 42 44 45 49 46 45 44 42 41 40 51 41 36 41 42 44 39 42 38 35 39 43 52 36 31 43 37 29 32 37 45 41 39 50 39 51 36 46 49 42 46 41 39 42 41 41 37 36 39 44 37 32 34 34 36 37 33 36 34 32 40 25 36 35 29 26 39 32 26 34 30 35 37 32 26 24 30 43 32 31 33 33 40 -9999 -9999 -9999 -9999 -9999 -9999 -9999 -9999 -9999 -9999
-9999 -9999 -9999 545 424 -9999 492 383 334 289 240 252 218 228 229 243 213 208 205 197 149 180 195 187 191 160 176 185 205 181 193 157 180 178 185 187 181 171 159 138 137 139 143 148 133 145 160 145 146 122 136 147 135 161 151 138 140 187 164 134 125 122 132 112 123 138 145 131 115 116 122 129 127 127 136 147 157 143 139 109 123 107 102 111 133 135 112 115 115 98 105 88 84 79 87 96 84 77 79 66 72 74 69 70 72 70 71 64 68 61 62 66 67 63 64 59 62 63 64 66 67 58 65 63 67 90 62 59 59 58 43 53 45 44 63 55 29 68 54 61 62 52 65 56 69 62 55 59 59 61 62 51 60 59 52 52 56 60 61 54 49 53 45 55 53 52 52 16 19 47 61 52 43 49 46 46 50 39 44 39 44 38 38 51 45 41 40 43 44 56 41 46 37 43 39 42 39 39 44 36 45 41 40 46 36 39 39 36 38 40 38 40 47 37 40 31 31 36 35 39 39 36 38 35 34 49 46 43 37 43 38 39 39 42 37 43 39 32 40 41 37 33 37 36 37 39 40 35 39 34 37 33 39 42 39 30 35 33 26 26 27 26 30 37 29 27 27 30 25 21 27 16 28 32 32 30 26 34 -9999 -9999 -9999 -9999 -9999 -9999 -9999 -9999 -9999 -9999
-9999 -9999 -9999 366 392 409 529 563 436 363 262 281 221 212 219 225 227 201 169 173 166 186 179 189 164 174 176 196 216 190 157 175 170 184 183 181 175 146 148 149 127 160 138 135 143 144 193 166 139 125 131 133 132 149 154 128 145 164 178 146 131 114 112 115 119 129 136 139 125 109 116 126 113 125 141 148 152 138 138 129 110 119 131 120 132 110 99 107 96 87 96 85 82 79 86 92 92 82 73 70 70 68 70 69 71 70 71 65 66 56 51 69 60 64 64 64 61 64 62 69 65 64 59 65 67 66 57 58 57 56 51 50 55 53 53 56 60 55 64 58 61 44 58 52 51 57 52 53 45 56 61 53 53 57 48 56 19 61 54 56 55 54 59 53 43 40 43 50 55 42 51 50 47 45 49 48 49 43 46 50 45 45 56 45 40 42 41 47 49 46 37 45 45 39 42 42 44 43 44 42 45 42 41 39 35 43 39 35 40 34 43 37 37 37 38 40 33 39 31 44 46 41 39 37 38 42 51 43 42 38 44 54 43 45 41 46 44 32 33 34 34 36 38 37 34 32 37 37 35 33 36 42 32 34 34 33 38 24 28 33 27 28 27 28 27 34 25 34 23 24 30 34 32 30 31 26 27 32 -9999 -9999 -9999 -9999 -9999 -9999 -9999 -9999 -9999 -9999
-9999 -9999 -9999 366 374 290 313 388 347 391 400 325 216 216 199 233 213 208 182 200 178 147 160 181 174 162 167 182 179 186 173 144 167 178 162 177 181 180 161 152 120 136 148 124 118 154 191 188 149 141 115 130 156 147 141 129 125 176 154 130 148 131 120 111 116 121 129 124 122 112 125 114 117 129 129 136 142 131 127 125 127 137 116 130 111 98 92 83 85 82 82 83 75 81 84 92 90 88 81 79 70 68 72 67 64 64 59 63 62 66 47 59 61 62 64 46 53 70 67 61 63 55 65 63 67 73 70 53 55 58 57 56 53 50 56 55 58 57 58 58 56 52 56 57 56 51 54 47 52 54 55 58 51 55 54 54 55 44 56 54 57 55 48 54 49 53 53 53 46 43 48 50 35 45 50 48 47 48 48 46 50 42 44 40 48 42 42 47 47 40 42 49 42 44 40 39 45 44 42 37 43 42 36 43 34 39 43 35 38 41 41 37 31 34 31 33 36 39 41 29 34 36 37 38 39 40 40 46 40 38 44 48 46 43 40 31 33 38 33 38 33 37 37 38 35 34 32 32 38 32 30 31 37 38 32 31 35 32 32 34 27 30 32 33 23 33 30 29 24 26 28 26 28 32 25 37 37 -9999 -9999 -9999 -9999 -9999 -9999 -9999 -9999 -9999 -9999 -9999
-9999 -9999 -9999 292 280 295 257 424 322 275 275 268 368 262 198 215 185 200 187 192 170 160 143 179 156 150 156 164 198 179 172 173 148 150 178 143 169 163 183 160 141 148 126 132 161 157 178 156 174 156 149 114 132 153 157 130 143 129 129 121 143 134 115 117 107 126 135 114 123 107 109 110 115 121 132 134 135 134 143 133 113 112 108 96 102 95 84 89 84 87 82 77 74 81 82 94 84 81 69 68 66 69 65 61 61 61 60 63 59 57 55 59 63 62 60 58 54 62 57 63 66 57 64 62 66 61 72 61 60 58 63 57 59 51 58 50 62 57 57 55 53 58 51 55 60 58 54 47 51 55 51 45 57 53 56 53 50 33 54 38 54 49 56 53 40 46 37 55 48 47 47 50 40 46 44 49 49 32 52 44 46 41 43 40 44 45 53 46 49 41 43 42 42 42 39 41 41 43 45 43 43 41 40 44 37 41 37 51 52 41 35 45 34 32 35 32 28 42 34 33 35 32 41 40 40 42 34 50 42 44 41 41 41 43 39 40 32 43 38 42 34 38 32 27 36 38 30 34 28 32 29 25 25 28 35 33 45 35 32 33 43 28 29 28 36 26 31 27 42 27 27 28 28 27 30 31 -9999 -9999 -9999 -9999 -9999 -9999 -9999 -9999 -9999 -9999 -9999 -9999
-9999 -9999 -9999 241 238 239 227 233 286 336 234 282 240 238 275 175 164 174 188 189 165 159 149 154 187 153 154 141 158 199 184 161 139 135 180 159 162 155 155 168 131 141 140 142 125 140 161 164 153 152 139 128 145 141 147 129 143 123 126 123 143 124 113 115 103 122 126 115 117 102 112 109 113 121 121 139 161 159 140 132 114 101 101 86 93 102 124 134 101 86 90 81 82 78 73 76 79 80 73 74 79 62 66 60 61 63 59 66 57 59 62 62 66 64 63 55 56 62 54 47 60 57 68 83 71 52 76 60 60 61 61 67 61 62 59 63 56 53 52 50 55 57 63 61 55 52 48 54 49 51 50 52 41 46 55 48 51 41 53 50 52 48 47 56 50 37 41 47 52 50 47 32 41 43 45 45 51 45 47 52 45 48 41 51 46 57 49 49 45 47 43 47 43 43 42 45 44 34 43 43 40 41 39 41 34 37 41 37 39 42 42 45 33 27 34 33 30 34 39 41 30 29 36 39 43 39 36 43 44 39 40 40 45 39 44 29 35 33 31 38 31 31 33 28 34 32 29 40 34 57 30 34 28 29 32 36 58 44 36 40 40 25 28 25 44 32 31 31 30 35 29 28 30 30 26 30 32 31 33 -9999 -9999 -9999 -9999 -9999 -9999 -9999 -9999 -9999
-9999 -9999 -9999 216 220 198 205 209 200 209 228 243 230 213 210 205 223 202 189 148 155 168 168 142 132 164 147 156 173 180 187 176 163 137 159 155 147 146 157 159 129 126 114 121 105 130 165 178 168 127 153 124 119 152 136 142 147 112 118 128 141 128 125 122 112 109 117 113 119 112 106 112 113 115 120 147 141 154 152 129 131 113 109 115 102 136 135 116 101 99 92 77 76 69 74 79 75 70 63 70 67 58 63 68 62 59 57 61 65 55 59 65 59 65 61 64 56 58 59 55 58 46 64 63 58 60 64 55 59 60 58 64 61 61 67 61 64 63 60 57 52 56 51 57 52 55 53 50 48 43 48 47 40 52 55 51 52 49 57 46 44 53 51 44 55 47 44 22 53 46 43 38 21 42 43 54 39 43 43 50 43 43 45 48 45 46 54 48 48 46 47 48 44 45 36 43 44 46 37 41 37 41 41 43 41 42 45 45 35 34 39 37 33 28 27 36 32 43 36 37 25 32 33 36 42 43 29 45 46 39 42 38 40 35 33 35 36 38 35 30 25 49 33 25 34 33 35 27 28 34 32 32 28 27 28 31 32 29 24 34 30 34 30 32 31 36 30 27 27 26 30 20 21 26 34 34 32 23 28 -9999 -9999 -9999 -9999 -9999 -9999 -9999 -9999 -9999
-9999 226 216 211 195 192 199 204 190 213 199 190 204 215 266 206 209 217 173 185 159 193 182 147 137 150 142 140 149 159 176 172 145 138 144 161 159 144 148 167 166 135 114 127 129 154 188 144 151 192 133 108 123 120 131 134 133 127 104 126 123 120 114 117 114 105 110 109 114 118 106 113 106 119 119 125 130 151 145 135 150 139 132 130 129 149 132 103 95 90 88 85 89 74 70 75 74 73 74 71 65 61 60 85 79 59 58 58 58 57 53 61 60 61 69 63 56 52 60 62 45 56 71 73 62 56 53 59 59 63 64 62 64 58 53 70 62 62 59 59 57 50 49 53 48 41 47 44 45 34 47 50 50 52 46 48 50 46 56 48 54 41 46 71 60 35 37 51 47 43 23 40 21 41 46 47 44 40 41 46 43 49 46 48 49 47 49 52 43 50 42 35 46 43 46 41 40 40 44 39 40 38 36 37 39 39 41 43 36 39 40 33 31 26 26 25 30 36 35 34 28 31 42 36 33 39 44 34 39 34 37 37 46 41 36 33 38 34 39 30 33 27 31 37 30 30 39 32 27 28 32 36 24 30 24 33 23 25 33 24 31 31 28 32 29 41 31 28 30 25 27 32 35 26 27 27 30 23 31 -9999 -9999 -9999 -9999 -9999 -9999 -9999 -9999 -9999
-9999 234 201 192 210 189 210 212 182 179 191 203 196 186 197 182 175 201 206 223 207 197 189 164 155 145 135 138 142 144 169 155 143 134 140 156 134 131 143 150 147 135 114 114 115 146 220 153 135 142 110 112 135 140 112 150 122 145 121 107 106 116 112 120 102 109 93 100 108 118 106 112 116 121 116 116 126 142 162 162 145 140 122 114 117 132 141 114 116 117 103 99 89 83 72 81 74 70 69 70 75 74 72 78 94 63 58 62 53 59 56 59 61 58 58 64 50 63 57 57 56 57 58 60 38 60 53 60 64 69 66 63 61 63 65 67 67 69 67 62 60 58 56 52 51 51 48 47 45 52 45 29 44 49 44 47 45 50 47 47 34 44 32 50 51 28 34 40 44 43 68 39 47 46 47 37 46 41 50 46 43 46 40 45 47 48 41 43 41 44 39 43 43 44 43 40 41 31 41 38 40 39 39 43 32 37 43 43 43 37 39 33 33 30 35 30 33 31 36 35 32 31 29 33 38 41 45 44 41 49 38 37 43 40 35 35 25 37 25 32 35 28 33 32 34 30 31 28 31 24 30 30 35 33 42 38 25 25 29 27 32 28 31 29 30 37 29 33 29 26 30 25 21 18 26 32 27 25 25 31 25 -9999 -9999 -9999 -9999 -9999 -9999 -9999
-9999 -9999 224 212 220 177 175 215 184 171 184 182 172 159 185 170 183 175 187 181 171 175 178 149 152 145 136 136 137 153 177 150 152 133 140 150 141 122 134 136 138 135 118 115 108 160 141 136 112 125 118 116 108 120 117 103 97 117 106 96 107 94 107 92 101 94 110 115 95 114 106 117 119 113 113 110 120 131 160 144 125 133 111 110 109 110 125 106 105 106 97 98 101 94 87 74 68 65 78 67 63 90 77 73 90 78 61 57 57 57 51 64 56 54 66 53 48 55 51 60 62 56 57 55 56 60 57 54 58 57 58 56 59 60 63 69 70 70 60 69 67 62 60 54 51 51 56 54 46 54 52 47 64 59 44 49 50 45 48 48 42 36 39 45 46 32 42 48 40 35 51 46 48 43 43 46 44 44 46 47 44 47 29 58 46 49 46 46 41 41 45 42 41 38 37 40 40 40 42 39 36 38 33 41 39 39 38 42 40 40 43 39 31 30 30 31 36 31 30 35 34 26 31 29 40 41 37 46 39 36 36 36 34 41 35 27 25 35 36 30 33 30 15 36 25 37 28 27 25 28 31 29 37 25 35 28 30 29 31 28 25 28 39 29 35 28 32 28 32 33 28 25 26 23 31 34 26 19 28 28 26 -9999 -9999 27 29 30 -9999 -9999
-9999 -9999 218 198 185 204 211 227 198 167 172 177 192 165 162 147 166 171 170 165 177 154 163 142 141 133 120 148 131 150 167 182 138 128 132 141 140 140 126 144 136 135 131 113 112 127 103 103 102 119 101 127 111 141 100 122 106 107 118 124 102 111 93 93 102 115 101 98 110 103 96 108 112 106 106 109 110 122 168 143 135 114 111 101 98 103 107 102 97 105 110 88 86 91 86 78 75 75 63 67 66 78 82 93 79 87 70 73 67 73 53 56 67 49 58 54 50 53 51 60 59 59 58 51 57 51 57 57 53 56 64 60 61 60 68 72 65 63 63 65 70 62 71 63 62 66 55 62 55 44 52 45 49 46 50 38 44 43 45 41 40 26 26 42 41 43 51 21 42 40 55 51 42 47 48 49 41 42 44 43 44 39 50 49 41 62 47 40 37 42 38 32 41 40 40 39 46 44 49 42 42 45 39 42 34 49 41 40 41 45 37 38 35 32 30 25 25 37 39 31 36 30 42 29 36 38 41 42 34 39 47 40 40 34 33 38 37 31 30 29 36 27 31 36 29 31 26 29 26 29 48 29 31 24 36 26 31 23 28 25 24 34 28 28 31 29 24 28 30 27 29 38 28 28 24 23 24 40 29 39 30 27 29 33 31 30 -9999 -9999
-9999 -9999 223 191 232 193 173 189 176 187 158 169 172 177 152 155 157 156 158 160 164 151 158 164 148 135 131 133 130 146 155 173 153 126 130 138 150 127 121 133 122 126 131 110 110 104 112 134 112 132 139 100 134 123 143 131 119 138 115 117 122 116 107 111 102 123 103 112 104 88 101 99 113 102 107 104 108 110 128 126 122 129 114 103 102 88 104 108 96 95 94 103 89 89 78 84 78 70 71 63 67 93 80 88 89 93 89 95 94 93 64 63 56 56 53 56 51 61 47 62 58 60 58 52 55 53 58 56 49 61 50 53 58 58 62 65 64 57 59 65 52 61 64 56 49 28 59 34 54 50 52 46 57 59 61 51 62 40 35 50 36 38 37 29 44 41 49 46 46 45 46 42 44 47 47 45 39 43 46 48 42 48 38 46 53 46 42 43 42 40 35 43 42 47 44 58 43 39 40 42 48 38 37 38 38 42 47 44 35 34 38 39 31 28 29 31 36 33 32 31 27 32 36 36 37 42 43 39 51 45 40 41 48 35 35 34 36 28 31 29 32 33 31 38 39 25 29 29 29 26 44 49 32 26 28 26 26 34 28 29 22 32 34 28 26 27 25 31 29 29 26 32 31 21 25 40 32 26 25 18 31 30 24 31 21 26 30 37
-9999 -9999 324 214 192 208 220 213 157 169 181 159 175 204 162 145 144 155 153 154 156 154 144 164 160 146 126 128 133 141 140 139 148 139 117 143 153 138 122 131 134 133 120 104 125 127 108 134 140 135 156 145 146 118 119 129 130 128 136 130 139 137 119 117 113 121 103 122 111 96 88 96 102 105 99 99 103 111 112 118 111 118 119 119 113 91 96 99 109 92 87 99 90 90 72 80 76 72 63 64 64 79 102 98 92 103 99 86 100 81 90 71 78 56 52 52 55 55 55 57 53 52 59 62 53 57 57 63 54 47 57 56 59 43 65 53 67 63 58 62 56 65 45 59 56 49 60 57 55 50 54 58 53 48 61 54 48 48 49 40 40 29 38 26 41 40 57 41 47 48 29 43 46 48 41 40 41 43 47 48 41 45 45 40 40 46 48 47 42 41 42 34 40 42 43 44 39 44 43 44 41 38 38 39 36 41 41 42 39 34 35 35 32 31 33 34 29 34 25 33 35 25 34 38 34 35 36 38 44 38 38 39 37 33 28 33 32 29 28 30 29 26 22 29 38 33 34 28 32 29 33 39 40 34 31 29 32 34 28 34 30 24 28 26 24 22 32 25 32 27 33 31 41 28 34 27 28 24 28 32 32 45 37 28 33 29 40 41
-9999 -9999 399 324 211 169 165 192 208 167 146 168 152 188 154 142 142 159 146 157 147 159 153 140 151 152 132 124 126 133 147 139 142 134 125 139 136 131 132 120 126 113 116 112 122 135 122 113 165 173 202 188 133 119 128 163 127 145 120 121 151 131 118 141 112 126 120 135 129 94 98 100 95 96 98 104 109 108 109 113 108 102 103 105 120 97 83 101 102 102 85 95 89 81 78 72 71 66 65 64 70 70 99 102 98 96 103 93 92 91 80 76 70 61 62 50 54 51 49 53 43 56 55 62 56 49 51 51 56 55 59 57 59 58 59 55 55 63 60 64 58 61 58 57 45 36 54 55 56 57 61 34 53 62 50 46 46 34 44 45 36 45 39 45 42 47 43 37 41 27 47 54 44 37 43 41 45 43 45 42 30 46 42 48 44 34 43 46 42 42 38 46 39 35 37 43 43 40 39 41 45 44 36 38 36 39 38 47 41 45 32 38 28 34 28 42 30 34 34 33 36 26 35 39 45 38 39 34 38 38 38 43 28 26 26 28 36 30 33 24 25 26 27 31 27 34 31 27 31 27 27 26 36 41 30 31 26 29 38 37 28 39 29 28 21 30 22 31 25 21 28 26 22 23 25 36 21 32 39 38 50 39 39 31 32 28 36 -9999
749 552 525 366 297 268 219 168 155 197 172 147 157 153 140 139 138 137 141 148 145 160 157 147 140 136 130 123 126 136 146 142 132 133 118 137 145 123 121 113 116 112 106 120 136 157 141 118 129 171 175 167 137 148 135 141 139 140 124 115 132 130 133 140 136 135 121 116 132 94 92 94 99 96 102 102 105 106 110 105 107 105 99 105 101 105 88 84 94 100 91 87 85 78 80 76 70 73 64 74 66 80 84 97 98 77 85 90 88 80 84 72 63 67 73 76 50 61 54 54 53 54 41 49 58 48 50 59 60 53 52 54 56 58 61 58 54 59 57 58 60 61 50 54 60 53 53 55 32 51 57 57 58 50 41 52 26 38 44 44 43 42 41 43 48 51 46 41 44 41 42 49 48 41 47 52 49 48 49 36 41 41 52 43 42 47 45 47 39 36 40 48 44 40 38 46 36 38 37 46 41 41 42 33 32 39 42 36 40 42 31 21 30 33 28 31 23 35 32 34 39 31 33 28 40 42 41 31 28 34 31 34 32 31 25 19 33 29 27 26 22 36 27 26 26 26 29 35 23 27 25 43 37 41 36 30 25 25 27 19 29 30 35 27 28 32 34 29 26 24 21 24 20 35 27 39 29 43 36 46 52 42 36 30 44 42 42 -9999
977 823 633 494 398 402 360 254 213 167 209 177 157 131 154 147 142 141 138 140 142 162 153 156 135 142 133 120 130 132 139 136 144 120 121 118 128 129 131 134 118 112 126 135 150 137 163 125 155 171 179 158 147 147 149 134 122 139 128 118 136 143 142 137 139 144 126 116 104 113 85 96 97 94 103 97 106 105 104 110 120 108 108 101 102 104 103 82 86 93 92 73 79 74 70 77 70 66 68 76 72 82 93 111 109 100 80 85 105 96 93 88 87 90 79 64 64 78 63 50 54 50 44 53 52 60 42 48 53 60 52 50 57 57 47 58 53 62 63 66 64 57 53 56 46 55 47 50 43 54 52 53 43 41 35 32 53 44 45 31 51 43 44 37 36 35 41 37 40 40 43 49 47 45 49 44 46 51 45 47 42 35 44 42 43 43 42 40 40 40 39 48 39 37 34 34 41 42 36 36 37 35 42 36 33 33 41 31 36 37 37 29 31 27 34 28 28 25 29 39 27 29 32 31 37 36 37 33 39 33 32 35 29 36 27 25 39 41 28 27 30 27 32 25 29 29 36 34 29 37 25 30 32 35 35 35 35 36 40 35 31 38 37 41 23 31 23 30 29 27 30 22 26 26 34 20 41 40 42 50 38 44 41 30 35 40 -9999 -9999
-9999 879 720 535 411 486 311 388 367 280 198 162 189 150 142 136 146 140 135 136 138 155 143 140 148 130 135 122 124 130 130 136 139 130 123 115 112 126 114 117 120 115 145 138 138 173 145 118 124 155 167 180 151 188 180 173 145 151 141 134 125 130 160 178 148 151 132 127 116 103 84 97 95 98 99 101 102 101 101 109 113 116 110 103 108 98 97 89 82 86 85 81 66 75 84 76 64 66 70 62 70 84 102 112 93 109 108 99 95 97 92 85 82 79 86 83 68 70 72 77 53 52 52 51 58 52 53 54 51 51 52 54 50 54 52 48 51 49 56 51 65 60 52 55 55 47 52 48 54 50 57 51 51 52 50 49 43 44 46 39 39 39 37 35 36 37 30 43 36 40 41 40 44 37 44 47 61 48 46 42 46 47 39 43 39 43 45 45 40 37 36 42 40 35 40 31 40 36 33 33 41 38 34 34 30 38 35 29 39 31 29 30 31 31 24 27 32 29 32 24 29 34 27 32 34 37 33 37 37 31 41 33 30 30 28 24 26 25 35 25 34 32 29 32 37 35 28 33 34 47 32 30 30 32 34 35 35 33 29 36 34 32 29 36 27 28 37 40 30 29 21 12 23 24 24 32 50 50 50 39 37 33 32 27 39 40 -9999 -9999
-9999 819 618 582 627 644 472 496 484 465 216 357 166 147 154 173 148 143 129 136 148 164 153 132 145 132 124 114 118 122 127 126 132 131 139 136 120 107 111 107 118 110 143 151 162 168 157 124 125 135 161 176 164 169 153 161 164 145 142 129 152 154 143 154 127 137 125 122 100 102 90 84 97 96 96 100 93 99 107 108 113 107 125 107 107 97 86 96 94 85 85 71 92 86 82 71 71 66 73 75 75 89 108 110 103 106 102 105 84 95 85 87 83 77 82 75 85 71 68 68 62 50 55 51 48 51 53 52 48 46 52 41 61 54 59 49 60 52 61 59 61 52 51 57 53 61 45 47 55 50 51 38 50 48 44 46 48 42 45 47 31 42 20 27 30 49 32 30 39 45 45 42 42 35 44 62 53 50 43 48 45 27 40 41 43 42 41 42 42 44 35 31 38 33 36 33 37 36 34 41 32 35 32 33 35 29 36 44 31 32 31 31 28 32 28 26 23 25 24 31 35 31 33 36 35 38 32 39 26 34 33 27 27 41 30 31 31 37 40 32 32 33 25 25 30 36 41 33 52 30 41 36 25 35 45 34 35 28 30 43 36 38 32 31 27 31 26 33 19 35 23 27 31 29 26 29 39 57 50 41 48 43 42 39 45 -9999 -9999 -9999
-9999 -9999 860 792 896 805 730 411 302 276 334 337 259 187 155 150 134 134 133 128 158 141 143 133 134 136 140 138 120 124 114 132 122 126 130 128 137 121 122 128 144 135 147 170 155 156 149 127 153 152 152 157 151 155 136 148 160 153 150 150 138 145 142 136 138 139 126 120 101 103 92 92 84 95 100 100 98 105 104 99 103 118 144 117 113 106 89 84 94 89 75 97 83 78 77 68 68 70 73 69 81 94 112 114 98 110 85 97 88 89 93 80 73 68 69 73 69 82 73 65 64 86 44 53 44 48 46 54 51 54 49 62 57 61 60 54 55 59 54 61 58 57 59 41 51 49 42 27 49 48 46 47 50 53 28 45 34 34 40 42 25 44 40 45 43 34 30 18 39 38 39 40 45 45 53 63 53 46 44 46 46 43 40 34 48 40 41 41 41 37 33 37 36 33 37 38 38 34 39 42 39 38 29 31 40 35 39 37 31 33 21 34 29 21 27 26 27 27 30 28 33 36 33 34 38 32 39 37 35 38 49 30 24 26 42 27 26 33 33 25 30 31 27 27 55 49 45 53 45 40 37 41 43 32 29 39 32 29 26 33 31 30 34 38 26 24 32 22 34 25 30 13 23 26 29 21 49 62 56 46 45 55 34 35 -9999 -9999 -9999 -9999
-9999 -9999 -9999 -9999 -9999 -9999 777 623 501 493 290 199 349 341 327 162 183 156 135 144 144 137 132 129 125 130 125 125 122 119 113 119 124 117 118 114 112 118 130 122 121 153 137 178 188 170 144 158 159 174 166 158 130 140 141 126 142 137 126 142 131 128 153 171 128 123 122 110 108 124 94 89 92 97 91 95 90 97 107 98 105 119 128 135 111 106 92 99 92 91 103 90 83 77 76 80 67 69 68 73 83 114 109 108 93 104 97 88 91 86 83 78 71 76 67 59 71 70 63 72 60 65 63 44 52 49 52 46 45 49 50 50 55 51 57 59 54 55 60 53 58 51 48 51 52 47 45 56 40 53 44 46 24 33 43 38 38 48 41 36 39 43 40 21 34 47 35 40 24 33 26 48 42 42 57 49 43 47 36 40 41 44 37 43 40 40 42 42 41 37 36 42 35 33 40 35 36 33 35 35 30 35 37 28 33 34 36 35 30 38 37 29 28 27 18 26 25 28 27 28 32 32 32 41 34 36 29 31 27 37 26 38 26 26 27 26 27 30 29 26 37 29 30 28 46 43 45 39 46 43 44 39 35 31 38 32 32 29 29 30 35 31 30 31 32 26 26 27 31 24 17 31 30 35 19 32 49 44 51 46 48 33 28 43 -9999 -9999 -9999 -9999
-9999 -9999 -9999 -9999 -9999 707 718 670 468 340 255 276 345 482 338 213 352 207 137 130 120 129 119 124 113 123 121 120 120 121 114 115 117 114 120 137 130 121 172 177 145 130 160 146 164 163 136 152 161 170 136 151 127 131 136 114 123 127 128 120 113 119 126 141 123 114 119 135 128 125 109 111 89 90 89 85 87 100 94 104 110 101 104 120 123 107 108 104 108 102 89 83 78 73 68 70 71 65 70 72 102 96 101 98 103 90 86 89 92 84 76 71 70 66 65 63 71 71 68 62 59 48 53 58 53 53 48 51 48 45 47 51 54 57 36 54 48 51 52 58 50 49 52 46 45 49 51 42 38 44 43 44 34 48 46 45 43 45 33 39 40 40 35 29 35 38 36 41 30 42 34 32 38 40 44 44 46 44 37 41 40 45 43 38 38 43 40 41 39 39 40 43 41 36 36 36 40 35 40 38 39 40 36 36 41 34 35 38 41 27 12 29 30 32 26 20 35 22 36 38 37 35 25 38 33 29 33 25 35 27 34 36 28 32 26 28 30 26 24 27 33 26 24 41 44 49 38 32 54 41 42 36 28 34 36 33 26 33 27 30 26 32 32 34 37 29 28 28 25 21 24 32 20 26 25 33 45 57 55 47 40 37 57 42 -9999 -9999 -9999 -9999
-9999 -9999 -9999 -9999 755 571 479 468 475 406 315 346 451 388 316 355 300 310 375 236 140 148 131 112 127 125 123 117 121 114 117 117 142 171 341 444 312 242 202 175 165 127 151 171 175 138 152 154 167 160 143 126 134 134 128 124 121 118 120 113 114 109 121 114 121 107 110 131 125 127 106 104 81 87 82 94 88 92 93 95 108 101 100 121 106 105 92 93 99 93 85 78 82 71 69 70 69 69 73 89 99 113 101 90 91 93 80 80 79 75 76 74 69 76 92 84 61 54 57 68 58 58 56 61 54 60 48 50 51 42 47 49 51 52 46 50 44 51 53 56 32 36 39 48 29 48 38 50 31 50 51 48 50 40 45 40 41 53 46 40 33 33 34 43 13 40 39 45 42 37 37 37 38 42 35 41 46 39 34 42 36 40 40 39 43 45 44 39 37 37 41 43 43 37 41 37 39 38 40 37 38 41 37 37 36 34 33 29 34 25 27 35 39 30 32 31 34 33 33 35 33 38 32 32 38 37 35 39 35 34 39 25 27 30 30 29 30 28 39 52 43 44 42 47 41 46 48 46 46 40 39 47 32 38 37 34 32 36 28 23 29 29 31 32 31 28 29 26 26 26 27 33 35 25 31 39 44 56 47 41 38 60 45 43 -9999 -9999 -9999 -9999
-9999 -9999 -9999 -9999 915 956 571 374 297 262 299 384 388 338 342 316 387 364 330 198 282 149 196 224 145 133 123 122 119 127 187 234 158 338 438 586 531 494 385 214 148 140 142 174 158 154 160 150 174 158 162 142 141 118 130 125 114 120 110 102 110 103 96 107 106 101 104 139 113 113 117 123 95 83 90 90 87 90 96 96 101 95 108 118 111 108 106 100 88 90 85 81 77 70 74 66 70 75 87 98 103 101 102 86 82 84 75 80 84 89 99 81 82 83 83 78 69 68 65 65 61 53 51 53 55 58 47 46 54 49 47 49 55 52 53 43 50 47 46 50 40 49 36 37 38 46 42 36 64 44 44 44 45 41 42 43 46 40 42 45 41 44 43 44 45 40 39 31 39 40 42 43 38 38 36 37 41 36 38 33 33 41 39 40 39 36 41 39 40 32 38 37 40 37 34 41 40 34 37 38 37 40 29 41 32 33 31 35 40 23 29 28 28 28 33 27 37 31 37 26 30 22 34 39 31 32 44 40 36 34 31 32 31 32 31 33 27 32 51 52 49 48 44 39 42 53 46 45 44 43 43 38 17 32 40 22 29 33 27 29 30 27 29 28 25 41 20 26 17 23 24 27 31 28 27 32 40 50 40 45 53 52 41 -9999 -9999 -9999 -9999 -9999
-9999 -9999 -9999 -9999 -9999 -9999 657 589 363 314 281 407 443 384 389 413 381 353 248 384 332 234 158 267 202 197 135 151 229 142 251 385 329 496 638 637 581 528 531 350 182 170 162 169 163 162 176 166 148 158 153 133 113 117 119 112 107 111 129 120 105 104 104 101 98 99 101 118 132 108 110 110 109 110 95 91 91 91 92 86 95 94 100 119 123 104 99 88 85 88 89 80 75 71 73 69 69 84 99 102 121 105 95 97 94 100 99 94 86 89 88 88 87 74 80 83 76 78 81 64 62 61 56 59 52 54 39 51 47 41 49 56 51 53 54 55 46 56 48 46 47 44 61 44 43 48 46 48 54 45 43 45 38 38 49 47 34 37 38 45 42 40 39 41 20 44 35 48 42 37 40 35 38 49 53 49 40 43 35 41 38 32 49 40 46 39 37 38 40 36 33 38 40 39 35 39 37 39 36 36 33 39 34 40 37 44 35 30 26 32 32 27 30 38 28 30 29 44 44 47 34 32 37 38 36 34 31 31 31 35 28 27 26 33 30 28 31 48 45 47 50 50 38 45 45 45 47 44 39 36 37 38 27 40 43 35 22 31 33 27 26 20 24 29 29 20 24 20 20 26 28 33 25 26 44 39 51 47 51 56 53 48 43 56 -9999 -9999 -9999 -9999
-9999 -9999 -9999 -9999 -9999 -9999 -9999 -9999 462 401 398 597 613 544 403 382 508 324 319 313 269 191 356 239 199 161 236 298 242 188 237 375 452 566 687 725 818 701 599 376 177 150 183 183 161 175 159 148 141 146 171 122 124 138 131 113 132 133 125 112 104 121 131 109 99 89 99 103 119 114 107 98 102 110 84 89 90 89 88 80 83 98 98 98 106 114 92 86 93 88 74 79 74 81 70 70 73 91 99 112 111 112 108 106 97 91 94 92 91 91 93 84 84 80 75 77 64 71 79 79 67 61 61 38 47 51 47 46 44 38 49 51 52 50 53 54 49 43 58 49 43 45 49 36 36 35 44 42 39 46 45 41 45 37 42 48 36 38 35 39 39 46 37 51 38 39 39 35 39 37 33 37 39 61 85 49 42 55 46 45 40 36 35 37 33 50 40 39 34 35 30 35 35 34 27 38 36 36 35 39 36 37 35 37 33 33 32 30 30 30 30 30 30 26 26 30 37 42 50 61 35 35 46 35 43 31 34 26 27 32 31 31 28 29 30 28 50 38 48 48 31 48 44 42 40 40 46 36 46 37 40 36 31 32 23 30 24 24 26 28 33 35 29 35 21 24 19 24 33 24 41 29 29 36 46 51 51 50 56 53 52 46 42 -9999 -9999 -9999 -9999 -9999
-9999 -9999 -9999 -9999 -9999 -9999 -9999 -9999 -9999 603 -9999 -9999 -9999 669 512 473 451 554 462 314 258 308 311 207 133 253 371 382 381 256 174 295 388 477 552 636 779 659 509 292 170 154 182 183 167 150 137 138 143 128 121 136 141 146 169 141 162 160 116 101 115 131 133 114 99 96 91 96 110 118 115 107 96 102 100 87 90 85 87 88 91 91 98 109 98 104 105 94 89 90 81 73 77 70 67 71 84 89 103 103 96 109 98 95 96 87 88 76 83 88 84 85 78 87 63 69 63 54 63 67 53 58 52 50 45 50 53 49 48 45 46 48 49 48 50 48 49 42 43 47 45 40 44 42 41 44 43 41 41 40 42 40 54 40 33 38 47 36 37 39 46 38 38 38 47 40 33 37 40 32 32 39 35 29 50 59 54 69 50 45 47 45 40 34 34 43 42 38 37 34 38 35 36 41 36 36 37 40 35 38 38 36 38 40 33 47 32 32 26 21 43 34 30 41 43 51 46 52 32 47 31 33 40 50 38 37 29 44 35 39 30 29 36 30 29 36 42 48 45 47 48 31 42 42 40 39 31 35 34 34 19 27 30 25 22 23 27 19 20 26 24 26 27 24 25 20 23 25 31 33 42 45 39 36 45 51 51 65 61 55 -9999 -9999 -9999 -9999 -9999 -9999 -9999 -9999
-9999 -9999 -9999 -9999 -9999 -9999 -9999 -9999 -9999 -9999 -9999 -9999 -9999 -9999 628 679 629 366 318 357 351 182 239 140 203 278 311 448 372 201 375 201 301 363 485 571 692 594 392 220 181 220 209 190 172 147 179 194 138 152 128 149 146 136 155 160 133 128 120 107 124 139 126 114 104 95 99 95 96 106 107 102 107 103 90 85 85 87 81 82 78 87 96 104 97 94 92 87 87 80 82 70 75 74 72 74 80 92 119 106 93 101 102 100 92 95 96 79 85 82 87 83 71 81 87 78 78 79 59 58 57 54 46 54 48 55 69 55 57 44 48 44 46 44 41 46 53 40 49 37 46 44 41 31 43 43 35 42 42 41 41 41 41 38 45 38 32 39 43 33 41 40 44 37 33 36 48 41 34 33 39 40 31 43 39 72 70 73 68 47 53 57 49 38 37 41 40 40 35 28 34 39 33 39 40 49 34 38 40 35 32 33 41 33 37 39 30 35 40 31 44 42 48 52 45 43 45 42 44 36 32 39 36 40 39 34 42 33 37 34 27 41 35 53 47 49 50 43 43 49 46 38 36 40 31 41 32 37 28 29 21 21 21 24 18 19 27 23 30 22 30 26 20 34 26 32 54 25 28 44 41 43 35 44 48 52 60 -9999 -9999 -9999 -9999 -9999 -9999 -9999 -9999 -9999 -9999 -9999
-9999 -9999 -9999 -9999 -9999 -9999 -9999 -9999 -9999 -9999 -9999 -9999 -9999 -9999 -9999 -9999 592 427 423 398 269 210 154 240 222 317 326 476 364 260 284 252 313 347 410 504 521 381 204 204 202 227 214 208 187 218 274 156 202 153 154 129 130 134 123 132 140 119 111 106 125 131 123 115 114 100 103 99 86 94 104 102 116 115 97 79 79 79 78 77 70 78 84 99 103 85 80 85 82 83 76 79 78 76 79 78 100 102 124 97 92 88 86 97 91 86 98 87 92 68 70 73 68 84 80 70 68 77 68 57 53 58 52 48 78 77 85 69 66 53 51 43 32 43 51 41 43 50 47 45 45 45 39 35 39 43 41 39 38 34 42 44 44 41 44 33 45 47 26 39 40 40 41 42 45 38 39 41 38 35 39 39 39 41 40 40 62 61 60 62 62 52 55 46 40 34 34 40 43 29 34 36 35 39 36 32 38 38 35 34 34 39 24 37 38 23 36 22 25 36 24 32 47 43 39 44 44 48 39 35 37 41 38 41 28 39 21 37 33 34 33 30 47 46 50 44 39 46 43 41 37 35 37 36 35 32 26 27 29 28 31 24 28 24 30 28 25 23 26 24 26 33 34 29 27 31 29 45 29 44 48 56 36 48 50 64 -9999 -9999 -9999 -9999 -9999 -9999 -9999 -9999 -9999 -9999 -9999 -9999
-9999 -9999 -9999 -9999 -9999 -9999 -9999 -9999 -9999 -9999 -9999 -9999 -9999 -9999 -9999 -9999 -9999 385 303 339 258 178 292 287 319 285 394 424 321 282 409 497 270 235 284 334 343 405 267 231 300 269 232 361 267 337 203 154 311 156 138 154 153 170 119 130 104 102 133 110 128 138 119 119 106 112 95 98 90 99 92 95 102 102 110 105 90 88 86 82 82 78 81 81 85 78 85 84 77 78 70 73 78 81 82 95 94 99 123 117 104 80 80 81 74 79 87 80 80 91 78 75 78 72 72 71 68 59 54 55 52 57 65 72 68 70 71 79 66 58 54 47 54 45 39 48 51 46 46 43 43 44 49 33 43 43 42 45 46 41 48 43 42 58 52 55 59 48 43 42 40 50 50 48 49 34 34 36 42 39 41 37 39 42 44 52 55 51 61 75 77 80 44 45 42 39 42 41 33 41 44 39 38 36 44 39 28 34 37 35 41 31 38 38 40 39 33 25 42 21 59 57 47 43 39 42 44 37 39 36 32 29 43 32 40 34 41 40 33 35 29 47 52 49 50 47 33 42 39 36 39 37 32 33 37 32 29 34 30 28 30 23 24 31 29 26 34 26 32 38 27 43 33 29 23 27 29 47 45 29 36 47 55 56 59 59 -9999 -9999 -9999 -9999 -9999 -9999 -9999 -9999 -9999 -9999 -9999 -9999
-9999 -9999 -9999 -9999 -9999 -9999 -9999 -9999 -9999 -9999 -9999 -9999 -9999 -9999 -9999 -9999 -9999 -9999 304 244 193 307 425 488 451 289 386 395 288 317 522 412 418 292 256 300 360 357 386 327 493 566 378 373 310 270 154 321 307 243 164 157 130 106 123 108 137 126 122 114 119 127 123 116 106 113 105 96 92 92 83 89 83 99 98 98 106 94 88 84 76 84 83 86 83 83 88 78 79 76 70 79 77 77 97 107 100 106 105 102 97 85 79 87 88 76 87 82 67 76 73 74 72 59 58 59 67 53 52 61 62 59 73 76 75 74 66 62 62 64 63 68 41 44 41 43 45 38 41 47 41 43 40 41 40 35 44 41 44 72 49 60 55 65 52 52 53 40 40 51 39 50 49 35 36 40 35 33 41 16 40 36 38 39 41 51 53 64 92 63 78 70 69 60 48 45 65 62 41 37 59 35 31 36 41 38 39 38 35 35 42 39 32 45 33 36 37 40 32 41 56 52 43 45 35 39 43 38 43 33 39 36 35 35 40 35 33 31 30 44 40 52 49 46 46 42 38 37 32 35 36 42 30 31 27 39 40 35 36 34 32 32 33 34 20 29 27 41 30 44 38 33 22 31 28 42 44 48 51 49 34 43 54 -9999 -9999 -9999 -9999 -9999 -9999 -9999 -9999 -9999 -9999 -9999 -9999 -9999 -9999 -9999
-9999 -9999 -9999 -9999 -9999 -9999 -9999 -9999 -9999 -9999 -9999 -9999 -9999 -9999 -9999 -9999 -9999 -9999 -9999 253 360 553 495 451 590 413 366 520 363 472 450 390 435 350 327 308 395 502 562 602 700 643 494 496 376 179 195 271 156 195 155 132 181 120 170 149 199 121 125 118 137 165 132 114 114 103 107 107 96 92 94 90 91 86 86 84 90 86 91 81 76 82 81 83 84 85 84 79 78 70 77 72 92 79 103 101 102 96 96 88 98 92 92 78 75 71 68 68 68 69 66 69 67 66 64 67 57 62 66 52 70 85 79 68 82 69 71 68 61 57 55 53 61 52 44 44 44 42 41 38 43 47 35 46 67 50 65 59 60 61 56 52 54 42 61 53 54 38 50 47 48 38 36 39 39 39 17 33 39 36 42 38 41 40 39 60 51 60 73 72 74 67 68 67 55 57 54 59 57 47 46 51 39 42 39 43 40 45 35 41 44 28 36 34 37 44 25 39 39 50 19 54 47 34 34 31 37 39 37 36 36 42 39 36 33 37 33 35 45 54 50 45 45 40 44 42 38 35 37 38 47 39 25 33 32 31 31 33 36 30 29 28 27 28 28 35 28 28 35 38 37 45 35 32 37 33 47 46 57 51 54 57 -9999 -9999 -9999 -9999 -9999 -9999 -9999 -9999 -9999 -9999 -9999 -9999 -9999 -9999 -9999 -9999
-9999 -9999 -9999 -9999 -9999 -9999 -9999 -9999 -9999 -9999 -9999 -9999 -9999 -9999 -9999 -9999 -9999 -9999 -9999 484 467 574 752 670 439 544 528 575 589 617 465 452 590 467 490 437 335 558 732 743 534 427 373 327 316 220 261 230 197 158 143 149 127 165 230 226 254 172 140 162 152 135 127 131 130 113 98 107 105 91 92 111 101 86 87 82 77 75 84 85 91 75 79 84 75 72 70 70 70 74 80 86 85 95 101 108 98 102 90 92 93 86 81 74 66 73 74 72 70 69 81 76 75 84 90 89 62 56 64 61 70 85 77 64 59 59 69 70 66 63 57 56 53 45 45 42 47 46 47 53 45 75 72 61 57 56 58 63 48 59 54 51 38 49 39 52 54 57 44 44 36 42 33 41 36 38 57 47 49 42 40 37 42 49 51 55 59 64 72 63 62 69 63 68 62 53 51 51 54 51 51 52 38 42 40 43 36 36 38 31 46 36 40 30 37 32 40 60 55 48 39 50 43 42 36 42 33 36 30 38 34 40 37 34 43 35 37 54 54 47 41 45 44 38 41 41 36 36 36 36 36 29 26 34 29 32 42 37 21 27 36 52 25 37 28 22 34 33 38 47 40 26 37 22 34 26 39 52 54 54 56 -9999 -9999 -9999 -9999 -9999 -9999 -9999 -9999 -9999 -9999 -9999 -9999 -9999 -9999 -9999 -9999 -9999
-9999 -9999 -9999 -9999 -9999 -9999 -9999 -9999 -9999 -9999 -9999 -9999 -9999 -9999 -9999 -9999 -9999 -9999 -9999 -9999 613 705 809 693 617 665 -9999 -9999 765 783 706 611 588 515 698 601 461 459 645 722 467 289 217 234 166 186 199 152 144 157 139 166 122 127 160 230 283 167 133 226 170 174 164 147 117 110 114 116 105 91 99 111 106 99 88 76 97 109 99 107 105 94 80 98 99 80 78 105 102 90 101 88 109 113 111 104 86 104 102 99 81 80 73 79 94 74 87 79 82 82 91 82 85 83 75 67 74 65 67 89 89 71 69 68 63 68 53 52 54 62 53 59 46 44 43 45 43 40 34 79 75 68 70 74 73 83 70 73 67 65 63 58 57 54 52 39 44 31 50 46 47 41 33 43 39 44 47 41 41 35 41 42 43 51 53 53 64 66 72 71 53 63 65 55 52 59 56 48 47 46 31 36 39 33 38 31 39 47 40 50 18 33 47 33 33 41 61 58 38 52 40 36 39 38 37 35 39 37 37 33 37 37 33 38 35 40 51 54 52 51 43 42 40 41 29 37 38 28 39 24 33 33 35 28 35 34 41 26 27 34 28 34 37 29 26 34 34 45 55 40 50 46 33 33 35 29 34 38 56 50 63 -9999 -9999 -9999 -9999 -9999 -9999 -9999 -9999 -9999 -9999 -9999 -9999 -9999 -9999 -9999 -9999 -9999
-9999 -9999 -9999 -9999 -9999 -9999 -9999 -9999 -9999 -9999 -9999 -9999 -9999 -9999 -9999 -9999 -9999 -9999 -9999 -9999 -9999 -9999 -9999 -9999 -9999 -9999 -9999 698 727 605 621 530 343 484 490 533 612 482 454 645 484 260 169 147 177 248 210 145 140 180 122 118 143 142 179 194 223 134 192 361 213 234 150 154 119 128 108 93 96 108 121 116 106 100 88 79 101 162 122 109 104 99 100 103 89 88 85 94 109 120 98 100 125 127 112 105 109 104 101 88 86 74 103 89 78 86 89 85 88 94 85 73 79 79 78 66 64 68 73 71 78 75 65 69 68 59 57 48 47 59 54 51 46 50 54 46 34 42 69 75 70 63 73 61 63 70 58 57 68 69 50 54 52 47 51 36 43 41 36 44 42 38 33 41 49 47 38 38 42 34 35 43 43 52 59 64 71 70 72 71 66 55 59 66 41 39 41 43 39 42 30 44 43 48 49 52 40 38 41 41 38 15 44 64 52 62 48 51 43 58 33 48 39 38 42 42 37 39 38 41 43 34 36 64 39 64 63 53 45 38 48 39 39 38 42 42 31 32 36 35 35 29 36 48 51 44 38 27 28 30 31 32 33 30 41 30 39 47 51 36 40 48 34 32 56 44 39 53 53 56 -9999 -9999 -9999 -9999 -9999 -9999 -9999 -9999 -9999 -9999 -9999 -9999 -9999 -9999 -9999 -9999 -9999 -9999
-9999 -9999 -9999 -9999 -9999 -9999 -9999 -9999 -9999 -9999 -9999 -9999 -9999 -9999 -9999 -9999 -9999 -9999 -9999 -9999 -9999 -9999 -9999 -9999 -9999 -9999 -9999 503 530 719 448 479 375 315 415 477 686 592 344 421 502 454 272 158 146 223 182 163 130 138 131 134 145 130 134 171 176 152 292 414 401 234 240 164 114 134 116 107 112 118 106 106 101 94 92 91 111 116 136 129 112 118 102 103 81 99 87 177 124 110 127 112 107 104 98 97 91 87 82 82 86 106 91 90 82 108 110 100 88 77 79 77 82 68 80 82 68 73 80 79 74 78 61 74 58 57 57 54 62 54 62 44 47 38 51 45 46 65 74 73 54 58 55 62 58 67 59 66 56 61 53 51 42 42 44 48 46 34 42 44 41 54 51 52 55 48 41 43 40 41 40 46 49 56 62 62 68 70 70 64 67 62 58 51 53 44 36 43 38 52 48 51 53 54 47 39 46 48 44 39 32 53 35 42 70 55 58 55 60 50 50 52 44 33 38 34 35 41 40 37 39 41 32 36 33 61 58 47 46 41 45 38 42 37 39 43 37 31 38 36 51 47 48 41 40 44 34 33 30 34 23 33 30 31 37 44 39 52 54 43 46 35 39 48 41 41 57 51 67 -9999 -9999 -9999 -9999 -9999 -9999 -9999 -9999 -9999 -9999 -9999 -9999 -9999 -9999 -9999 -9999 -9999 -9999 -9999
